ply
format ascii 1.0
comment object: list of points
element vertex 1358
property float x
property float y
property float z
property uchar red
property uchar green
property uchar blue
end_header
-107.182 138.048 1356.82 255 172 28
-87.0351 223.461 1336.22 255 255 0
123.73 -21.5111 1769.68 255 255 0
-285.819 167.97 1415.28 255 255 0
-63.6475 134.044 1388.04 255 255 0
-629.381 172.051 1545.91 255 255 0
-1135.73 46.0371 2069.83 255 255 0
-533.205 18.9488 1654.15 255 255 0
-309.065 36.247 1468.64 255 255 0
-445.938 21.9064 1560.23 255 172 28
-393.17 51.1186 1493.81 255 255 0
-713.475 92.7269 1805.05 255 255 0
171.443 208.264 1439.47 255 255 0
-466.999 -17.2965 1550.01 255 255 0
-268.072 44.3808 1399.27 255 255 0
-766.756 115.339 1749.24 255 255 0
22.7877 -106.709 1972.42 255 255 0
-293.067 28.3966 1499.55 255 255 0
-360.038 26.3847 1514.78 255 255 0
-457.147 -331.772 1462.91 255 255 0
-431.686 -290.311 1454.56 255 255 0
-496.568 33.5473 1619.5 255 255 0
-209.862 58.606 1408.26 255 255 0
227.513 -352.72 1540.26 255 255 0
160.318 -83.3491 1666.11 255 255 0
-73.5814 174.243 1503.16 255 255 0
-331.009 2.09145 1490.33 255 255 0
-461.572 -394.632 1451.69 255 255 0
-541.626 -161.315 1559.4 255 255 0
-747.609 -6.60782 1821.93 255 255 0
-325.978 -307.308 1435.89 255 172 28
-360.277 84.2869 1485.55 255 255 0
-162.282 177.788 1391.96 255 255 0
-206.065 233.964 1300.45 255 255 0
109.067 -205.34 1721.37 255 255 0
246.554 -14.5227 1611.63 255 255 0
-322.479 -53.0271 1472.94 255 255 0
-260.47 63.472 1393.32 255 255 0
284.64 79.2108 1606.43 255 255 0
-384.23 -290.162 1451.86 255 255 0
-259.152 238.14 1296.69 255 255 0
-688.683 -165.732 2094.18 255 255 0
910.706 74.7999 1859.69 255 255 0
255.001 41.8834 1608.92 255 255 0
130.596 -115.877 1731.6 255 255 0
-311.645 161.312 1441.88 255 255 0
-502.457 -92.0996 1578.73 255 255 0
-383.834 -343.1 1438.75 255 255 0
-562.216 -376.629 1596.29 255 255 0
-844.438 -125.247 1981.85 255 255 0
-324.919 -168.785 1473.58 255 255 0
113.769 -1.66476 1901.86 255 255 0
-313.538 -76.7023 1530.81 255 255 0
-234.365 20.1776 1520.8 255 255 0
-752.179 -41.0027 2047.6 255 255 0
173.189 33.0933 1641.21 255 255 0
-35.1317 -19.2689 2066.47 255 255 0
-12.3949 -131.845 2017.68 255 255 0
450.708 152.853 1584.41 255 255 0
-196.092 109.724 1383.11 255 255 0
-279.988 221.607 1321.56 255 255 0
-160.029 109.229 1385.76 255 255 0
-674.794 -15.0839 1904.71 255 255 0
-294.48 41.2755 1458.63 255 255 0
-1122.82 -833.881 -5198.53 255 255 0
-733.792 -300.779 2320.47 255 255 0
-730.936 1.20746 1808.85 255 255 0
-432.305 10.0896 1534.49 255 255 0
-439.232 -314.248 1450.69 255 255 0
-981.237 -223.404 2066.79 255 255 0
249.146 -347.042 1477.03 255 255 0
-591.14 152.405 1604.8 255 255 0
-190.643 254.65 1227.79 255 255 0
336.73 -348.452 1476.81 255 255 0
-555.257 -11.0973 1656.6 255 255 0
-466.266 -381.748 1455.84 255 172 28
-390.47 -326.823 1441.95 255 255 0
-138.131 101.127 1416.22 255 255 0
-510.53 -391.234 1495.55 255 255 0
252.214 -44.7025 1595.69 255 255 0
-541.064 -407.963 1563.08 255 255 0
158.165 -62.8333 1682.97 255 172 28
-920.969 -162.044 1982.46 255 255 0
-546.946 -358.128 1568.32 255 255 0
-784.645 -58.1265 2030.97 255 255 0
-506.997 -329.439 1512.16 255 172 28
-270.174 85.0873 1401.12 255 255 0
-398.536 -378.011 1434.25 255 255 0
-847.165 96.2441 1817.7 255 172 28
-402.67 -328.773 1450.67 255 172 28
-349.666 -315.375 1409.68 255 255 0
-617.846 179.198 1528.28 255 255 0
319.377 -355.588 1498.69 255 255 0
-588.927 -365.111 1613.46 255 255 0
-908.961 -168.342 1985.49 255 172 28
-225.42 161.207 1362.75 255 255 0
-628.596 96.119 1732.16 255 255 0
169.513 -423.688 1550.48 255 255 0
-760.051 -220.889 1992.53 255 255 0
-508.889 -339.736 1507.93 255 255 0
-984.892 -193.597 2086.63 255 255 0
-252.94 154.051 1385.7 255 255 0
-319.399 33.6949 1443.96 255 255 0
-646.876 -207.936 2141.36 255 255 0
-405.059 -343.802 1441.79 255 172 28
-856.174 -25.7547 1941.82 255 255 0
-813.624 106.931 1800.46 255 172 28
309.163 -400.502 1479.59 255 255 0
256.2 -401.197 1470 255 255 0
-632.253 95.1493 1835.53 255 255 0
338.581 -23.7277 1570.08 255 255 0
-1044.82 -4.3417 2089.07 255 255 0
-701.046 -197.051 2103.56 255 255 0
-786.555 -169.524 1994.91 255 255 0
-90.8798 224.256 1331.68 255 255 0
-312.778 75.9594 1442.58 255 255 0
-703.651 -361.905 2504.23 255 255 0
123.169 -156.087 1749.97 255 255 0
-697.656 -3.59578 1891.73 255 255 0
-342.214 -20.8659 1489.06 255 255 0
278.118 -453.435 1527.48 255 255 0
-309.872 51.7339 1439.85 255 255 0
-77.3399 233.235 1315.85 255 255 0
-451.979 -210.572 1421.08 255 255 0
-144.948 242.942 1268.69 255 255 0
-350.029 25.4092 1459.73 255 255 0
-709.091 90.6171 1788.04 255 255 0
-154.382 233.663 1306.66 255 255 0
-461.022 -14.8663 1556.29 255 255 0
-543.808 2.36415 1641.69 255 255 0
-520.336 96.5395 1621.17 255 255 0
-315.609 -41.2614 1525.59 255 255 0
-731.51 -213.117 2075.54 255 255 0
198.032 -366.752 1595 255 255 0
-708.017 -4.99778 1815.15 255 255 0
-274.859 153.38 1412.7 255 255 0
-653.686 -67.1751 2180.6 255 255 0
-427.645 -58.2303 1517.55 255 255 0
-711.766 -32.5614 2126.46 255 255 0
181.229 -395.167 1560.52 255 255 0
-458.344 39.0866 1574.25 255 255 0
-53.1334 2.00199 1830.72 255 255 0
-437.427 43.6755 1550.21 255 255 0
-502.236 -5.28189 1599.46 255 172 28
-838.378 -47.6827 1995.29 255 255 0
-160.515 171.179 1352.49 255 172 28
-959.052 -232.608 2150.35 255 255 0
96.838 213.218 1379.34 255 255 0
-111.129 235.785 1289.67 255 255 0
323.781 79.8829 1601.13 255 255 0
188.486 -52.1214 1658.45 255 255 0
-92.1703 223.497 1341.66 255 255 0
-542.997 -22.9429 1641.09 255 255 0
-788.737 116.227 1818.25 255 255 0
-498.963 38.4791 1606.76 255 255 0
-461.859 -374.227 1452.66 255 255 0
-463.486 -298.739 1498.84 255 255 0
-750.854 79.4551 1801.6 255 255 0
-500.144 -344.976 1509.22 255 255 0
-267.276 197.601 1283.61 255 255 0
-53.1809 120.328 1378.22 255 255 0
-444.685 68.8746 1553.72 255 255 0
-585.192 -304.17 1628.61 255 255 0
-674.478 -50.8 2172.76 255 255 0
-82.0594 229.899 1272.38 255 255 0
-509.95 128.288 1612.55 255 255 0
-475.321 -239.093 1397.95 255 255 0
-415.009 134.081 1527.15 255 255 0
281.067 183.841 1497.78 255 255 0
-669.723 -71.3219 2170.43 255 255 0
527.159 140.292 1603.42 255 255 0
182.015 -338.015 1585.02 255 255 0
449.909 153.463 1582.02 255 255 0
393.063 159.973 1552.25 255 255 0
-661.462 7.66192 1877.1 255 255 0
223.032 -391.101 1553.79 255 255 0
-177.944 239.665 1271.96 255 255 0
-517.176 8.15627 1068.4 255 255 0
-689.637 -112.537 2115.75 255 255 0
-486.118 6.93665 1531.6 255 255 0
-387.74 204.151 1379.65 255 255 0
-464.119 -265.141 1485.65 255 255 0
-508.551 181.216 1499.78 255 255 0
150.984 29.3248 1609.02 255 255 0
-94.4607 118.959 1356.38 255 255 0
51.0987 -17.4707 1976.85 255 255 0
-354.74 -303.754 1405.79 255 255 0
-111.481 207.513 1366.92 255 255 0
-238.264 56.9672 1370.56 255 255 0
-245.153 55.3692 1394.16 255 255 0
-607.682 -256.942 2177.78 255 172 28
-400.779 176.679 1391.78 255 255 0
-208.253 51.033 1398.96 255 255 0
64.8705 86.8272 1560.34 255 255 0
-822.22 -273.42 2227.38 255 255 0
-331.153 -18.7014 1471.25 255 255 0
-526.146 -10.5764 1622.46 255 255 0
-325.442 210.754 1360.73 255 255 0
-385.129 92.0636 1507.8 255 255 0
123.291 36.3192 1798.47 255 255 0
-543.343 -445.058 1623.87 255 255 0
-541.821 -374.708 1561.5 255 255 0
-479.3 74.7027 1590.66 255 255 0
-422.006 -381.178 1448.46 255 255 0
-569.75 -361.915 1588.19 255 255 0
-895.97 -44.549 1997.68 255 172 28
-162.885 246.016 1256.53 255 255 0
-690.635 -250.438 2114.35 255 255 0
-579.479 -415.817 1589.29 255 255 0
-614.175 180.326 1531.09 255 255 0
-536.523 -355.878 1564.61 255 255 0
-203.342 100.029 1389.79 255 255 0
-570.568 -30.0116 1081.67 255 255 0
-211.698 -345.666 1497.3 255 255 0
-411.95 192.509 1466.77 255 172 28
166.687 -369.702 1566.12 255 172 28
-642.62 61.7511 1934.81 255 255 0
-236.505 141.758 1363.91 255 255 0
-279.078 141.347 1404.58 255 255 0
-369.099 -371.688 1406.47 255 255 0
-387.744 115.02 1512.45 255 255 0
-536.808 -386.106 1561.2 255 255 0
-672.876 -201.167 2111.19 255 255 0
-673.818 -321.039 2267.2 204 85 0
-763.081 -183.708 2034.42 255 255 0
-464.522 -319.631 1476.32 255 255 0
-457.238 110.327 1566.39 255 255 0
-585.624 -57.8652 927.07 255 255 0
-970.115 -205.712 2058.48 255 255 0
-266.505 150.663 1399.13 255 255 0
-466.245 -349.282 1463.75 255 255 0
-772.476 96.3772 1832.17 255 255 0
-365.309 -399.509 1454.09 255 172 28
-332.674 4.80707 1478.06 255 255 0
-702.22 152.232 1592.53 255 255 0
-439.946 98.5643 1548.16 255 255 0
-384.347 180.22 1386.88 255 255 0
-687.385 162.329 1584.52 255 255 0
-504.02 91.5046 1590.49 255 255 0
-218.746 -420.693 1525.58 255 255 0
-631.368 -248.792 2149.14 255 255 0
-1695.45 -1007.01 -2284.58 255 255 0
-1755.94 -929.123 -1625.57 255 255 0
-480.723 93.8307 1588.54 255 255 0
184.294 -471.721 1599.22 255 255 0
-456.668 -349.712 1464.34 255 255 0
-329.117 129.911 1432.94 255 255 0
-843.83 -164.504 1976.96 255 255 0
-531.177 95.7291 1634.09 255 255 0
-428.908 -332.727 1467.31 255 255 0
-846.471 -186.184 1978.25 255 255 0
-296.571 48.1603 1549.35 255 255 0
-635.245 -216.729 2155.1 255 255 0
-468.289 178.048 1531.52 255 255 0
-754.091 37.059 1828.61 255 255 0
-452.566 -332.222 1468.42 255 172 28
-889.569 85.2544 1861.27 255 255 0
-501.039 9.84166 1595.08 255 172 28
-618.605 -68.7402 2194.57 255 255 0
-84.5267 228.677 1305.02 255 255 0
-628.234 -277.287 2224.18 255 255 0
-314.306 -413.748 1441.1 255 255 0
375.47 135.569 1562.6 255 255 0
-543.657 2.81521 1640.25 255 255 0
-804.252 -197.018 1975.1 255 255 0
-241.374 57.2238 1458.36 255 255 0
-376.915 150.747 1494.72 255 255 0
-474.625 -14.6162 1558.46 255 255 0
-715.27 -269.279 2206.61 255 255 0
-713.021 111.362 1797.44 255 255 0
-766.524 113.609 1736.47 255 255 0
-330.6 -149.82 1435.76 255 255 0
-334.398 39.3616 1575.04 255 255 0
257.307 -87.3696 1578.87 255 255 0
-612.807 -224.776 2182.34 255 255 0
-417.744 -411.819 1485.99 255 255 0
-361.352 -340.857 1404.62 255 255 0
335.917 0.680489 1571.66 255 255 0
160.579 -175.083 2070.17 255 255 0
-317.647 126.194 1434.85 255 255 0
-569.59 -390.666 1592.77 255 255 0
-983.756 57.0932 1988.86 255 255 0
127.644 1.57324 1925.03 255 255 0
-635.707 -34.3673 2164.37 255 255 0
-160.2 179.258 1380.74 255 172 28
239.128 -65.8154 1589.15 255 255 0
-301.611 167.717 1431.08 255 255 0
-224.147 144.011 1356.81 255 255 0
166.705 -32.4087 1687.79 255 255 0
-482.213 7.18769 1533.6 255 255 0
-914.471 -219.412 2015.74 255 255 0
-376.159 -177.273 1430.39 255 255 0
-995.786 -64.5302 2094.69 255 255 0
-630.47 -95.7869 2198.42 255 255 0
-496.478 -45.8423 1585.16 255 255 0
-275.492 236.291 1305.35 255 255 0
243.473 14.9694 1615.88 255 255 0
-691.961 -141.957 2105.66 255 255 0
-480.019 41.3625 1592.69 255 255 0
-485.535 -19.6288 1565.65 255 255 0
-670.766 -11.4171 1884.2 255 255 0
-752.291 94.031 1787.56 255 255 0
-234.006 229.052 1270.56 255 255 0
-702.59 155.875 1599.45 255 255 0
-573.124 74.4774 1759.12 255 255 0
-861.891 -160.899 1979.49 255 255 0
-553.994 -11.6351 1646.24 255 255 0
-626.812 96.569 1736.09 255 255 0
-502.063 -393.239 1496.63 255 172 28
-660.031 139.845 1668.3 255 255 0
-364.194 -320.831 1418.41 255 255 0
-880.677 -189.657 1980.13 255 172 28
-627.185 137.744 1675.08 255 172 28
-592.692 39.5379 2022.72 255 255 0
-553.804 -269.413 2165.34 255 255 0
-642.503 43.7006 1906.5 255 255 0
-648.383 -210.069 2142.29 255 255 0
253.976 -358.315 1502.22 255 255 0
47.8561 87.6218 1492.87 255 255 0
365.829 -434.104 1524.42 255 255 0
-898.125 -206.378 1998.88 255 255 0
-289.347 112.83 1418.09 255 255 0
160.289 -63.4384 1686.4 255 255 0
246.757 -341.98 1511.69 255 255 0
-928.42 -205.011 2015.43 255 255 0
-518.817 65.6953 1609.1 255 255 0
-170.155 249.755 1246.52 255 255 0
-497.302 169.829 1506.3 255 255 0
154.521 -377.893 1581.54 255 255 0
-784.81 -218.954 2013.28 255 255 0
-191.308 247.593 1227.9 255 172 28
-464.049 7.96063 1553.27 255 255 0
-772.067 96.7788 1832.12 255 255 0
-391.352 -378.29 1433.6 255 172 28
489.28 70.3407 1636.32 255 255 0
-538.144 -385.558 1562.22 255 255 0
-56.0553 240.724 1279.2 255 255 0
-641.147 61.4074 1863.33 255 255 0
-824.72 -169.423 1973.58 255 172 28
-956.539 -205.807 2027.66 255 255 0
-793.402 -158.862 1983.45 255 255 0
-415.818 -332.096 1461.92 255 172 28
-2028 -702.213 -1268.77 255 255 0
-983.053 -195.255 2071.55 255 172 28
-235.862 155.83 1370.34 255 255 0
-315.409 74.0064 1435.33 255 255 0
82.9995 12.8628 1941.99 255 255 0
319.315 -403.702 1491.39 255 255 0
278.186 -35.0764 1569.91 255 255 0
-731.549 -213.897 2066.45 255 255 0
-467.27 102.502 1575.9 255 255 0
-518.856 80.6978 1615.81 255 255 0
-534.614 93.1942 1634.61 255 255 0
330.685 4.25013 1584.36 255 172 28
-223.509 161.027 1362.58 255 255 0
-1004.77 61.5024 1950.95 255 255 0
-709.719 91.6598 1789.92 255 255 0
-752.305 -209.885 2052.6 255 255 0
-513.865 93.4881 1603.86 255 255 0
-389.775 -375.411 1422.49 255 255 0
-741.206 -192.666 2071.9 255 255 0
-654.702 95.1353 1822.57 255 255 0
-655.361 -67.4639 2172.41 255 255 0
346.132 -22.9463 1577.64 255 255 0
-557.106 140.455 1547.53 255 255 0
-375.552 149.436 1490.42 255 255 0
-965.985 68.6939 1931.97 255 255 0
-499.616 28.9846 1605.36 255 255 0
-277.761 45.8611 1415.47 255 255 0
-462.056 -391.037 1445.81 255 255 0
-1047.35 49.4119 1985.11 255 255 0
-632.832 -131.2 2170.1 255 255 0
-96.9737 116.777 1351.75 255 255 0
322.964 194.111 1448.74 255 255 0
-761.883 29.7916 1836.5 255 255 0
-419.994 -196.433 1499.32 255 255 0
-569.346 -256.74 2220.53 255 255 0
-863.312 98.4648 1853.58 255 255 0
-846.773 -74.3594 1992.27 255 255 0
141.593 -87.6748 1672.83 255 255 0
-321.163 161.216 1448.38 255 255 0
-557.837 -140.918 1675.31 255 255 0
-2992.2 356.583 -1189.68 255 255 0
-157.627 207.518 1362.6 255 255 0
230.833 -41.8732 1635.67 255 172 28
-466.879 -65.1587 1538.87 255 255 0
-759.499 57.3894 1833.43 255 255 0
-452.217 -232.666 1521.43 255 255 0
-551.723 20.6053 1719.93 255 255 0
-382.258 16.9081 1459.03 255 255 0
-541.686 -22.4978 1635.23 255 255 0
-445.93 -247.541 1533.53 255 255 0
-498.986 -117.554 1569.17 255 255 0
-591.846 -212.538 2198.08 255 255 0
-691.404 -113.449 2127.19 255 255 0
-346.98 -280.456 1417.99 255 255 0
-393.994 -345.322 1435.74 255 255 0
-608.901 -59.769 2208.67 255 255 0
-625.032 -148.133 2263.86 255 255 0
213.792 -333.181 1573.32 255 255 0
-582.947 -152.239 2228.82 255 255 0
-285.134 234.076 1317.41 255 255 0
197.694 -51.7826 1665.42 255 172 28
-443.561 6.56657 1558.68 255 255 0
-103.039 173.776 1354.89 255 255 0
-2887.71 188.463 -1113.5 255 255 0
235.096 -329.829 1551.54 255 255 0
-677.615 -19.5968 1863.73 255 255 0
-229.391 59.4575 1403.5 255 172 28
-855.301 -204.528 1480.15 255 255 0
-139.687 115.059 1394.51 255 255 0
-622.458 178.54 1551 255 255 0
-274.548 221.79 1322.76 255 255 0
-433.094 -315.05 1454.22 255 255 0
-692.67 -249.013 2108.83 255 255 0
-881.573 -164.428 1974.49 255 255 0
-522.092 42.9083 1637.71 255 255 0
-561.718 36.8454 1963.77 255 255 0
-563.891 8.35265 1976.76 255 255 0
-384.045 89.5617 1502.01 255 255 0
-560.029 46.3094 1646.27 255 255 0
-379.643 191.598 1393.07 255 255 0
-937.44 -172.204 2027.73 255 255 0
-912.608 -169.716 1994.12 255 255 0
-870.206 -29.1546 1919.7 255 255 0
-360.53 -421.078 1456.46 255 255 0
-402.004 -377.919 1436.86 255 255 0
-532.853 -356.367 1565.93 255 255 0
-457.14 -320.808 1478.76 204 85 0
-502.616 -361.621 1506.78 255 172 28
-740.206 9.78446 1803.81 255 255 0
-962.38 -182.57 2051.24 255 255 0
142.089 -385.204 1613.28 255 255 0
256.582 -43.8921 1604.32 255 255 0
-240.85 123.938 1379.35 255 255 0
-972.402 -207.939 2068.23 255 255 0
-406.405 -408.148 1486.63 255 255 0
-342.426 100.174 1462.63 255 255 0
-846.136 98.0801 1825.38 255 255 0
-751.614 120.772 1805.08 255 255 0
144.645 -401.289 1671.9 255 255 0
-786.361 -57.9809 2031.22 255 255 0
-771.869 94.9978 1824.21 255 255 0
-2263.41 -870.146 -782.312 255 255 0
-1094.75 -280.881 394.178 255 255 0
-489.892 -286.54 2316.96 255 255 0
267.397 -30.3372 1623.52 255 255 0
-454.391 95.3657 1564.79 255 255 0
-868.429 -16.5606 1932.45 255 255 0
162.116 -431.898 1600.45 255 255 0
-703.645 -197.351 2072 255 255 0
-571.359 74.6081 1761.67 255 255 0
-632.081 81.1435 1845.3 255 255 0
-227.688 143.464 1371.83 255 255 0
-267.099 84.7915 1400.81 255 255 0
-467.394 102.001 1569.76 255 255 0
-278.377 141.068 1402.97 255 255 0
-829.014 5.60211 1887.69 255 255 0
-898.95 -195.104 2001.38 255 255 0
-925.102 -12.5401 1978.33 255 255 0
154.798 -11.9881 1697.56 255 255 0
-1954.54 -853.783 -1185.44 255 255 0
218.628 -363.433 1537.67 255 255 0
-244.989 139.764 1385.98 255 255 0
-550.427 -409.656 1563.94 255 255 0
-950.358 -230.851 2111.35 255 255 0
-502.052 -120.357 2325.17 255 255 0
-896.094 -169.368 2014.25 255 255 0
-537.327 -13.8116 2198.38 255 255 0
-725.458 29.5987 1802.43 255 172 28
-911.928 -203.932 1995.94 255 255 0
-261.799 136.864 1400.97 255 255 0
-931.406 -224.8 2061.32 255 255 0
-674.613 -212.144 2130.83 255 255 0
191.811 -507.573 1742.9 255 255 0
-707.204 94.9709 1801.35 255 255 0
-436.067 114.928 1553.85 255 255 0
-889.587 87.3074 1865.7 255 255 0
-629.98 -205.337 2153.59 255 255 0
-2210.06 -955.551 -1204.42 255 255 0
281.058 -34.7099 1576.06 255 255 0
-327.011 136.562 1457 255 255 0
-323.97 123.308 1453.49 255 255 0
-815.084 -204.618 1968.66 255 255 0
-699.26 -61.1132 2125.71 255 255 0
-843.903 -41.5304 2073.88 255 255 0
-634.943 98.4852 1834.15 255 172 28
131.1 34.7599 1746.91 255 255 0
-713.089 105.801 1777.25 255 172 28
-622.123 -75.8767 2218.48 255 255 0
56.6682 179.611 1354.41 255 255 0
-495.334 -36.9988 2281.21 255 255 0
-572.698 35.481 2008.08 255 255 0
-975.865 -40.9565 2017.21 255 255 0
-856.784 9.46559 1914.82 255 255 0
321.005 211.025 1436.11 255 255 0
-495.49 30.2752 1610.89 255 255 0
182.753 -392.544 1577.21 255 255 0
-519.823 -352.559 1552.88 255 255 0
-735.878 63.9394 1813.73 255 255 0
-785.17 112.098 1774.45 255 255 0
-725.995 -32.7165 2104.35 255 255 0
-812.222 21.5512 1867.12 255 255 0
-874.089 -254.741 2195.21 255 255 0
209.502 240.162 1310.91 255 255 0
-1032.7 -19.6271 2070.61 255 255 0
-567.591 34.3148 1725.84 255 255 0
-267.422 59.1461 1397.27 255 255 0
218.948 -378.672 1522.71 255 255 0
-460.878 -132.335 1494.11 255 255 0
-628.638 -47.6316 2190.7 255 255 0
-640.373 -30.2428 2172.35 255 255 0
-444.562 -90.1187 1536.57 255 255 0
-426.087 -229.758 1534.43 255 255 0
-353.996 -106.113 1535.91 255 255 0
-309.5 49.8037 1434.92 255 255 0
-277.615 134.86 1415 255 255 0
-432.703 44.6296 1551.93 255 255 0
-421.898 46.9952 1545.09 255 255 0
266.109 43.7535 1624.56 255 255 0
-362.961 55.9347 1507.81 255 255 0
205.204 -55.3087 1602.66 255 255 0
-903.427 -72.7297 1988.61 255 255 0
-749.572 94.1079 1785.33 255 255 0
-500.202 -39.8242 2046.09 255 255 0
-404.975 -338.3 2417.73 255 255 0
-570.944 12.327 1727.04 255 255 0
-467.682 -31.2608 2286.96 255 255 0
-168.051 -502.772 3439.11 255 255 0
-430.939 8.21965 1534.99 255 255 0
-513.983 -343.343 1513.2 255 255 0
-522.337 2.95415 1628.67 255 255 0
-728.276 -86.4228 1176.61 255 255 0
-487.366 -297.92 2312.15 255 255 0
-438.459 -281.764 2354.57 255 255 0
-564.318 -365.262 1595.64 255 255 0
244.437 -359.832 1513.88 255 255 0
171.129 -380.039 1595.45 255 255 0
-514.03 -413.608 1497.96 255 255 0
-380.349 93.6637 1503.17 255 255 0
-658.194 137.715 1668.23 255 255 0
-537.332 -406.606 1548.68 255 255 0
-387.245 -326.868 1437.05 255 255 0
-897.448 -206.539 1983.66 255 255 0
-490.348 69.3689 1592.32 255 255 0
-503.105 -330.717 1514.97 255 255 0
-944.547 75.6851 1932.92 255 255 0
-535.674 60.4797 1614.91 255 255 0
-700.01 -308.037 2239.63 255 255 0
249.569 -38.9883 1603.8 255 172 28
-932.563 75.9158 1888.91 255 255 0
-846.356 95.7134 1815.3 255 255 0
-893.327 -148.645 1978.35 255 255 0
-169.901 30.1503 1470.43 255 255 0
-491.664 172.875 1513.95 255 255 0
-301.649 108.708 1425.23 255 255 0
-402.772 -328.991 1449.58 255 255 0
-846.773 -162.69 1957.52 255 255 0
-2608.76 -993.444 -895.992 255 255 0
-295.294 29.233 1496.81 255 255 0
-784.392 -43.3885 1996.29 255 255 0
-546.468 74.7212 1650.87 255 255 0
-974.424 -209.52 2064.12 255 255 0
-453.882 -284.067 2370.04 255 255 0
159.506 -425.932 1586.3 255 255 0
-927.53 -170.432 2006.75 255 255 0
-812.996 107.405 1801.28 255 255 0
-567.86 70.0994 1714.42 255 255 0
-791.986 92.4986 1826.48 255 255 0
-512.721 -431.87 1580.21 255 255 0
-858.478 -185.878 1965.66 204 85 0
-496.328 156.637 1501.32 255 255 0
177.294 -425.257 1564.82 255 172 28
-361.496 61.5685 1483.29 255 255 0
133.859 -68.9344 1713.48 255 255 0
-519.251 -19.001 2018.79 255 255 0
-785.304 -53.6024 2026.88 255 255 0
-768.927 91.6789 1827 255 255 0
-495.427 162.215 1563.32 255 172 28
-733.858 26.8063 1813.02 255 255 0
-533.065 77.0198 1632.5 255 255 0
-2267.34 386.034 -1002.21 255 255 0
-708.871 5.8134 1830.02 255 255 0
2088.24 331.92 1611.35 255 255 0
-357.327 114.826 1482.9 255 255 0
-688.961 -233.924 2096.2 255 255 0
-956.476 -210.817 2029.73 255 255 0
-638.661 120.355 1737.92 255 255 0
-343.053 119.223 1466.35 255 255 0
-879.508 -21.4145 1931.71 255 255 0
-726.981 -210.072 2055.07 255 255 0
-645.231 3.68536 1883.3 255 255 0
-820.267 85.2278 1835.62 255 255 0
-57.965 238.351 1279.01 255 255 0
-936.933 -208.604 2012.31 255 255 0
-494.716 -21.5521 1581.37 255 255 0
-936.019 -231.465 2178.95 255 255 0
-2521.48 -1008.81 -973.191 255 255 0
135.014 -443.9 1653.71 255 255 0
-2463.99 -995.194 -999.93 255 255 0
-394.891 -264.568 2423.93 255 255 0
-501.775 -117.111 2324.53 255 255 0
-958.918 -159.783 2001.09 255 255 0
-754.783 -209.297 2031.99 255 255 0
125.257 -411.95 1632.54 255 255 0
-344.712 132.753 1467.86 255 255 0
-758.97 114.911 1747.11 255 255 0
-356.676 -343.782 1405.71 255 255 0
-736.049 38.8393 1810.58 255 172 28
518.586 90.1758 1608.31 255 255 0
-523.948 -388.313 1526.11 255 255 0
-408.47 -310.3 1432.18 255 255 0
198.108 -397.087 1573.49 255 255 0
-364.325 23.3393 1492.14 255 255 0
-2080.8 -253.708 -888.187 255 255 0
-80.1773 223.339 1343.36 255 255 0
-566.272 -389.882 1589.26 255 255 0
-2528.51 -1075.09 -926.436 255 255 0
-2006.79 26.1774 -772.432 255 255 0
-423.874 -59.8583 1537.9 255 255 0
-2200.01 -418.683 -1104.59 255 255 0
133.395 -373.928 1625.35 255 255 0
-408.061 12.5117 1525.34 255 255 0
-1943.19 47.9524 -670.4 255 255 0
-346.592 -280.748 1416.51 255 255 0
-575.442 -388.809 1596.69 255 255 0
-465.365 -294.636 1476.72 255 255 0
95.4838 27.9068 1767.71 255 255 0
-655.841 -57.5449 2175.14 255 255 0
-801.946 -47.3025 1973.33 255 255 0
-2157.48 -59.8547 -1025.85 255 255 0
-724.396 -255.137 1141.88 255 255 0
-398.837 143.08 1505.47 255 255 0
-796.185 -276.967 2260.04 255 255 0
-548.633 121.598 1659.92 255 255 0
-338.681 -319.865 2471.43 255 255 0
-668.145 -17.9906 1890.98 255 255 0
-740.545 -310.125 2335.52 255 255 0
-680.444 165.32 1594.71 255 255 0
-862.346 -161.588 1956.63 255 255 0
-725.993 4.37136 1837.64 255 255 0
-853.494 -22.1812 1947.87 255 255 0
-622.687 99.0709 1743.38 255 255 0
-537.1 -447.516 1631.04 255 255 0
65.8212 53.6039 1679.07 255 255 0
-783.747 -1.73779 1847.04 255 255 0
-706.353 -306.785 2258.06 255 255 0
-927.468 -206.196 2005.2 255 255 0
-740.482 -240.235 2065.93 255 255 0
-409.061 -353.648 1467.13 255 255 0
-390.344 -408.488 1483.55 255 255 0
-522.997 43.1374 1643.3 255 255 0
-314.923 -399.396 1436.28 255 172 28
-577.037 -363.947 1651.31 255 255 0
-868.721 -18.9792 1923.87 255 255 0
-829.454 -10.4639 1880.37 255 255 0
-544.922 59.0672 1644.1 255 255 0
-509.579 -302.355 2307.6 255 255 0
-511.791 -375.783 1552.84 255 255 0
-278.804 216.618 1319.12 255 255 0
152.272 -363.503 1602.23 255 255 0
-547.05 88.238 1650.16 255 255 0
-537.463 -358.986 1575.73 255 255 0
351.367 -415.594 1492.05 255 172 28
-352.877 -370.841 1401.52 255 255 0
-3968.99 285.79 -591.657 255 255 0
-320.153 206.342 1359.75 255 255 0
-834.011 -189.237 1970.77 255 255 0
-646.275 134.941 1697 204 85 0
-386.95 91.4927 1515.45 255 255 0
-492.715 153.132 1562.18 255 255 0
-643.419 168.127 1554.82 255 255 0
370.386 -437.568 1535.66 255 255 0
-1048.46 48.6328 1980.73 255 255 0
184.066 222.393 1356.13 255 255 0
-869.706 -28.7519 1930.45 255 255 0
-427.289 61.7472 1559.53 255 255 0
-191.281 110.741 1385.45 255 255 0
-135.57 21.1818 1483.04 255 255 0
-910.96 -203.874 1987.59 255 255 0
-271.455 206.507 1296.45 255 255 0
-750.92 36.9758 1826.47 255 255 0
-453.006 94.5282 1565.16 255 255 0
-1133.72 44.247 2056.17 255 172 28
-168.491 31.3491 1418.98 255 255 0
-636.711 -242.877 2137.85 255 255 0
-403.075 50.7416 1522.74 255 255 0
-543.767 -362.742 1583.22 255 255 0
-775.049 -207.287 2002.72 255 255 0
-402.078 112.965 1509.88 255 255 0
-237.36 99.9287 1380.98 255 255 0
-689.021 -62.0547 2140.83 255 255 0
-503.655 61.2183 1600.48 255 255 0
-860.301 -147.777 1927.66 255 255 0
-225.375 126.844 1371.29 255 255 0
-154.496 244.273 1261.28 255 255 0
-356.618 -336.356 2472.79 255 255 0
-335.591 -21.9453 1487.57 255 255 0
-420.404 115.362 1538.66 255 255 0
-711.589 88.1983 1778.8 255 255 0
-698.959 -54.0073 1144.66 255 255 0
224.072 -350.32 1544.36 255 255 0
-453.321 109.005 1566.78 255 255 0
141.834 -387.493 1636.26 255 255 0
-1000.95 -187.185 2057.2 255 255 0
-229.711 140.369 1369.34 255 255 0
-453.13 -380.55 1454.86 255 255 0
66.6583 179.185 1352.58 255 255 0
-902.864 87.3833 1880.33 255 255 0
-253.834 200.134 1251.13 255 255 0
-861.948 97.5179 1850.8 255 255 0
-618.507 -2.17482 2203.48 255 255 0
-361.804 -400.441 1458.02 255 172 28
155.5 -12.3281 1699.93 255 255 0
-181.474 141.809 1365.88 255 255 0
347.452 -569.608 3785.07 255 255 0
-414.748 71.7339 1522.68 255 255 0
-330.839 1.36207 1498.6 255 255 0
-656.214 -54.4165 2172.55 255 255 0
-967.284 74.323 1939.83 255 255 0
-1033.69 -19.4129 2073.91 255 255 0
-739.375 116.056 1774.35 255 172 28
-487.997 53.8711 1615.68 255 255 0
-467.591 128.72 1575.9 255 255 0
-517.592 24.1143 1625.89 255 255 0
-263.377 84.7661 1403.6 255 255 0
-642.033 -30.4167 2167.13 255 255 0
-793.396 98.2191 1737.77 255 255 0
-697.619 110.068 1786.01 255 255 0
-760.229 -60.5457 2049.25 255 255 0
-287.957 75.7636 1418.29 255 255 0
-993.069 -19.7913 2028.74 255 255 0
-369.549 -73.0467 2445.12 255 255 0
-634.029 137.315 1678.71 255 255 0
-572.963 -152.956 1674.25 255 255 0
-636.353 -53.5877 2174.19 255 255 0
-351.176 -48.2205 2406.52 255 255 0
-412.844 -40.6922 2310.88 255 255 0
-371.125 28.3045 1471.98 255 255 0
-828.768 -51.5405 2011.08 255 255 0
-450.736 18.4175 1550.68 255 255 0
-2357.02 -405.234 -655.614 255 255 0
-590.895 -65.717 2164.57 255 255 0
-536.377 -62.8618 2194.01 255 255 0
-590.473 183.597 1511.72 255 172 28
-734.458 11.212 1811.09 255 255 0
-876.052 -189.676 1984.49 255 172 28
-647.075 60.7149 1837.91 255 255 0
-707.826 -305.262 2245.24 255 255 0
-257.075 -233.47 2311.49 255 255 0
-850.441 -161.733 1949.19 255 255 0
-525.373 1.2408 1620.31 255 255 0
-297.021 -268.545 2326.25 255 255 0
-719.786 -273.563 2256.94 255 255 0
-461.804 -382.049 1461.09 255 172 28
-300.57 -413.811 1424.66 255 255 0
-945.289 79.1487 1920.17 255 255 0
-707.998 -303.587 2344.37 255 255 0
-947.569 -157.491 1998.36 255 255 0
-500.606 -341.736 1507.81 255 255 0
-274.949 -240.422 2323.34 204 85 0
-433.449 20.6552 1542.16 255 255 0
-426.616 9.50563 1538.1 255 255 0
-502.258 -387.473 1491.63 204 85 0
-932.84 -207.783 2008 255 255 0
-1057.24 -34.1153 2181.39 255 255 0
-509.95 -431.396 1584.9 255 172 28
-484.236 71.4413 1596.2 255 255 0
-974.877 -209.703 2057.31 255 255 0
-952.31 -211.918 2032.18 255 172 28
-830.202 6.23921 1879.92 255 255 0
-224.279 231.324 1276.36 255 255 0
-538.589 59.8489 1627.21 255 255 0
-879.126 -20.4649 1931.92 255 255 0
-893.381 -191.193 2001.64 255 172 28
-937.015 -208.792 2007.58 255 255 0
-434.356 81.0265 1544.08 255 255 0
-473.21 73.2922 1586.88 255 255 0
-400.701 -355.769 1444.85 255 255 0
-542.943 59.5327 1643.96 255 255 0
-382.009 -327.13 1439.01 255 255 0
-92.4751 129.201 1365.86 255 255 0
-542.338 -11.9542 2179.64 255 255 0
-249.481 121.253 1381.82 255 255 0
-395.436 -345.344 1437.41 255 255 0
-502.18 -390.674 1511.06 255 255 0
-632.453 83.2764 1834.61 255 255 0
-268.827 -121.993 2360.95 255 255 0
-924.599 -12.8271 1969.51 255 255 0
242.993 -413.556 1528.35 255 255 0
-800.742 23.8911 1868.07 255 255 0
-793.762 102.679 1819.29 255 255 0
-359.549 -419.911 1451.18 255 255 0
-573.179 67.4937 1729.39 255 255 0
-725.546 29.2315 1800.45 255 255 0
153.411 -423.862 1584.89 255 255 0
-790.357 -54.7612 2021.59 255 255 0
-268.67 206.18 1284.43 255 255 0
-563.509 71.3139 1717.48 255 255 0
-3347.71 -1130.93 -277.438 255 255 0
-529.148 95.24 1638.01 255 255 0
-548.839 -349.143 1699.74 255 255 0
-545.83 76.7434 1707.46 255 255 0
2089.01 339.601 1625.3 255 255 0
-815.182 20.1833 1864.62 255 255 0
-457.129 16.4416 1562.21 255 255 0
-953.157 -10.7629 1990.89 255 255 0
-983.363 70.2141 1947.51 255 255 0
-483.911 -297.252 1497.33 255 255 0
-234.214 154.195 1371.73 255 255 0
-207.939 110.537 1375.82 255 255 0
-319.048 -131.416 2336.25 255 255 0
-517.939 -352.986 1553.99 255 255 0
-155.88 244.614 1259.9 255 255 0
-227.335 141.801 1369.01 255 255 0
-320.515 123.126 1452.64 255 255 0
-863.344 96.5429 1845.34 255 255 0
-410.189 -332.108 1466.41 255 255 0
-508.225 -361.059 1510.48 255 255 0
-661.012 -295.407 2203.6 255 255 0
-572.849 -388.844 1596.76 255 255 0
-145.957 35.3463 1483.06 255 255 0
-798.881 96.1018 1827.17 255 255 0
-96.6654 189.053 1363.14 255 255 0
-797.919 -275.438 2265.83 255 255 0
-909.645 95.7828 1867.73 255 255 0
-706.131 -21.2879 1906.62 255 255 0
-656.247 -53.5119 2173.11 255 255 0
-253.293 62.4847 1404.15 255 255 0
-394.921 -262.436 2425.56 255 255 0
-536.5 2.43651 1644.51 255 255 0
289.382 -451.725 1536.79 255 255 0
-1208.24 -446.333 163.394 255 255 0
-161.501 30.5885 1456.02 255 255 0
-352.98 -343.643 1406.65 255 255 0
-348.002 -354.575 2441.56 255 255 0
-748.831 93.8963 1786.59 255 255 0
119.731 -115.216 2582.16 255 255 0
122.256 -190.898 2563.58 255 255 0
-342.287 -30.048 2285.05 255 172 28
-88.0728 -135.196 2428.57 255 255 0
-622.209 -249.325 2143.26 255 255 0
-781.879 -1.30445 1849.44 255 255 0
-949.9 -175.758 2040.4 255 255 0
-843.451 95.6941 1815.41 255 255 0
-570.184 -364.218 1604.34 255 255 0
-3222.98 132.77 -10.1916 255 255 0
-521.936 -10.769 1622.96 255 255 0
-502.033 -43.6774 2223.67 255 255 0
-756.951 104.183 1779.61 255 255 0
-927.162 -207.788 2010.44 255 255 0
-92.3619 102.761 1370.22 255 255 0
-691.208 155.379 1579.82 255 255 0
-910.255 -203.368 1988.17 255 255 0
-433.089 -313.786 1454.13 255 255 0
-1236.78 42.6012 2078.85 255 255 0
-757.477 116.456 1749.08 255 255 0
-1021.7 -31.072 2060.24 255 255 0
-1060.22 -37.1673 2507.86 255 255 0
-1225.71 41.207 2068.55 255 255 0
-572.711 -415.021 1590.38 255 255 0
-1214.44 41.5626 2079.03 255 255 0
-525.98 -356.892 1570.57 255 255 0
-1651.43 -398.366 875.807 255 255 0
-797.425 -45.9118 1994.83 255 255 0
-520.6 63.0816 1609.76 255 255 0
-399.686 -377.827 1439.41 255 255 0
-855.506 11.1095 1911.71 255 255 0
-414.277 -381.428 1453.37 255 255 0
-1121.71 39.0601 2067.96 255 255 0
-502.299 95.624 1613.81 255 255 0
-465.383 -348.987 1465.54 255 255 0
-261.952 -108.76 2342.23 255 255 0
-313.464 211.614 1363.45 255 255 0
-611.147 188.197 1571.38 255 255 0
-489.566 3.21006 1599.91 255 255 0
-842.538 -30.6759 1984.33 255 255 0
-250.102 -120.827 2372.02 255 172 28
-617.592 -7.65155 2187.42 255 255 0
-380.613 91.8439 1502.98 255 255 0
-390.119 -376.905 1434.29 255 255 0
-548.888 -21.036 2221.38 255 255 0
-199.578 46.5395 1432.97 255 255 0
-462.543 -332.314 1474.19 255 255 0
-963.472 76.283 1943.11 255 255 0
-582.989 154.223 1608.88 255 255 0
-363.571 92.4845 1488.39 255 255 0
-1029.64 -17.8993 2080.42 255 255 0
-782.551 107.354 1787.48 255 255 0
-330.237 30.9092 1504.38 255 255 0
-401.617 -328.104 1453.44 255 255 0
231.901 -358.134 1521.56 255 255 0
-279.832 203.364 1297.03 255 255 0
-281.22 -67.1909 2393.2 255 172 28
-499.002 -360.404 1509.5 255 255 0
-809.597 99.8649 1835.5 255 255 0
-276.067 102.659 1402.55 255 255 0
-511.191 -396.879 1500.69 255 255 0
-424.012 182.749 1500.05 255 255 0
-511.307 120.447 1608.82 255 255 0
-575.125 -151.935 1669.18 255 255 0
-438.183 166.793 1441.85 255 255 0
-326.017 135.283 1458.47 255 255 0
-242.143 137.719 1381.29 255 255 0
-640.018 121.574 1719.49 255 255 0
-1018.72 73.4922 1945 255 255 0
-886.949 -68.2586 1994.5 255 255 0
-298.256 126.542 1431.87 255 255 0
-1095 26.0464 2005.45 255 255 0
287.647 -32.6821 1581.03 255 255 0
-820.934 -37.546 1973.65 255 255 0
-294.599 136.218 1421.92 255 255 0
-575.43 -306.04 1631.05 255 255 0
-528.307 -24.8803 1623.18 255 255 0
-800.511 96.1771 1831.48 255 255 0
-578.688 -328.678 1622.55 255 255 0
-352.907 34.9597 1485.94 255 255 0
-502.646 -153.726 1570.25 255 255 0
-454.876 9.63186 1566.64 255 255 0
-93.2621 193.771 1367.88 255 255 0
-470.58 -423.207 1550.59 255 255 0
-189.267 24.9462 1467.72 255 255 0
-882.156 -124.746 1311.77 255 255 0
-572.644 91.5946 1736.06 255 255 0
-575.994 -247.276 1643.64 255 255 0
-1314.96 -307.327 730 255 255 0
-752.56 93.2525 1787.03 255 255 0
-149.452 -94.401 2342.52 255 255 0
-620.564 122.217 1673.31 255 255 0
-238.472 -208.814 2304.81 255 255 0
-53.0164 -51.7423 2350.32 255 255 0
-938.107 -172.273 2020.88 255 255 0
-716.492 153.18 1628.25 255 255 0
-924.438 -170.914 2018.86 255 255 0
-378.328 49.3522 1995.47 255 255 0
-1132.24 44.0847 2058.78 255 255 0
-943.261 72.1597 1928.29 255 172 28
-891.489 -149.365 1968.56 255 255 0
-1082.96 32.8687 2022.05 255 255 0
-702.857 -304.593 2353.8 255 255 0
-251.352 18.5851 2087.71 255 255 0
-962.212 -38.3701 2007.05 255 255 0
-871.335 -16.9509 1942.91 255 255 0
-933.662 -208.858 2012.99 255 255 0
-864.086 -16.9535 1928.66 255 255 0
-787.518 104.05 1826.29 255 255 0
-841.157 -158.621 1974.32 255 255 0
-2521.18 -860.603 -909.944 255 255 0
-819.651 -4.36825 1902.32 255 255 0
-1058.67 -3.22825 2213.14 255 255 0
-894.025 3.24418 1954.15 255 255 0
-524.307 1.16487 1624.92 255 255 0
-4080.78 -947.794 -20.6423 255 255 0
-630.035 137.656 1677.86 255 255 0
-735.674 25.6049 1807.99 255 255 0
-2577.61 -836.978 -800.892 255 255 0
-429.212 22.206 1548.57 255 255 0
-529.288 51.5175 1634.35 255 255 0
-423.015 10.1836 1542.45 255 255 0
-756.213 31.5135 1830.39 255 255 0
-523.172 -333.846 1538.56 255 255 0
-691.006 157.915 1590.28 255 172 28
-803.114 -16.5705 1854.64 255 255 0
-449.169 -408.298 1753.72 255 255 0
-952.813 53.391 1947.9 255 255 0
-572.517 -415.229 1591.14 255 172 28
-547.35 -10.5965 1646.09 255 255 0
-884.697 82.4679 1905.78 255 255 0
-625.373 166.93 1522.8 255 255 0
-191.729 50.3774 1416.75 255 255 0
-1891.28 -417.945 998.138 255 255 0
-567.366 -363.505 1595.45 255 255 0
-241.842 118.358 1380.53 255 255 0
-1058.1 49.3878 2004.27 255 255 0
-340.308 100.358 1463.39 255 255 0
-451.157 -470.486 1739.52 255 255 0
-490.133 89.8196 1598.87 255 255 0
-509.521 -383.659 1506.32 255 255 0
-379.478 112.989 1509.94 255 255 0
2151.43 350.088 1634.87 255 255 0
-515.089 -447.792 1574.78 255 255 0
-434.971 85.2775 1565.23 255 255 0
-583.08 153.901 1609.62 255 255 0
-232.688 125.43 1370.13 255 255 0
-499.249 -328.056 1516.89 255 255 0
-558.35 -414.727 1585.82 255 255 0
-491.658 -399.002 1522.29 255 172 28
-317.263 108.013 1451.77 255 255 0
-489.188 -360.553 1517.04 204 85 0
-358.013 35.8283 2030.17 255 255 0
-342.962 116.346 1467.71 255 255 0
-522.736 -374.401 1566.63 255 255 0
-355.253 -419.122 1454.55 255 255 0
-887.569 -65.0634 1990.25 255 255 0
-319.645 17.9493 1489.76 255 255 0
-245.274 136.199 1380.86 255 255 0
-518.918 -184.684 1572.8 255 255 0
-347.93 26.6349 1497.92 255 255 0
-451.56 -390.767 1452.13 255 255 0
-795.64 -276.504 3079.59 255 255 0
-241.029 155.033 1390.05 255 255 0
-494.089 -352.627 1551.35 255 255 0
-1011.98 -16.4001 2069.02 255 255 0
-144.24 5.22519 2165.17 255 255 0
-451.808 22.7378 1569.83 255 255 0
-232.789 155.24 1376.44 255 255 0
-582.04 -3.4073 2179.51 255 255 0
-249.243 -205.737 2340.53 255 255 0
-528.166 142.515 1652.27 255 255 0
-857.383 107.042 1809.67 255 255 0
-264.75 147.441 1411.07 255 255 0
-571.255 -389.614 1597.89 255 255 0
-985.211 -166.986 2058.85 255 255 0
-255.103 -177.24 2343.04 255 255 0
-505.492 -343.328 1521.45 255 255 0
-3846.56 -659.838 121.975 255 255 0
-245.488 65.0347 1407.08 255 255 0
-534.629 -72.6053 2196.87 255 255 0
-49.1296 -82.6249 2257.84 255 255 0
-725.117 7.34446 1830.29 255 255 0
-145.763 -92.4294 2345.02 255 255 0
-634.543 117.14 1669.01 255 255 0
-853.667 -158.806 1976.66 255 255 0
3.38973 -201.621 2217.73 255 255 0
-542.855 -62.7481 2222.14 255 255 0
-733.892 12.9661 1812.23 255 255 0
-236.447 -230.391 2297.77 255 255 0
-246.111 19.9171 2090.19 255 255 0
-263.182 -262.139 2328.35 255 172 28
-979.426 -177.606 2052.57 255 255 0
-909.432 -201.828 1992.82 255 255 0
-427.274 14.2332 1542.72 255 255 0
-523.665 -9.79258 1624.08 255 255 0
-928.074 -205.25 2008.96 255 172 28
-771.11 1.76002 1843.6 255 255 0
-1041.86 54.3726 1992.98 255 255 0
-934.412 -207.564 2014.89 255 255 0
-573.035 -29.655 1739.45 255 172 28
-870.658 -18.6985 1922.47 255 255 0
-93.2226 -165.169 2122.71 255 255 0
-1023.65 -32.17 2056.32 255 255 0
-744.869 114.459 1771.07 255 255 0
-828.638 8.20112 1889.78 255 255 0
-565.154 -360.935 1600.61 255 172 28
-435.577 -312.728 1454.65 255 255 0
-318.32 -408.801 1421.35 255 255 0
-755.141 -4.63977 1834.81 255 255 0
-658.464 297.52 1334.44 255 255 0
-959.801 -203.897 2038.72 255 172 28
-496.54 -339.005 1506.7 255 172 28
-575.544 -365.233 1617.98 255 255 0
-875.945 -90.2562 2493.25 255 255 0
-349.471 -377.619 1388.27 255 255 0
-253.856 117.767 1380.74 255 255 0
-454.969 -347.854 1465.73 255 255 0
-60.3819 220.944 1303.65 255 255 0
-774.846 111.992 1796 255 255 0
-521.382 -380.679 1542.46 255 255 0
-192.621 51.5674 1415.95 255 255 0
-247.408 188.981 1255.05 255 255 0
-344.616 -368.933 1404.8 255 172 28
-629.489 308.397 1320.99 255 172 28
-507.216 -401.323 1537.35 255 255 0
-539.908 -355.919 1576.47 255 255 0
-550.392 57.7494 1645.88 255 255 0
-763.523 33.7597 1859.75 255 255 0
-577.879 -410.742 1602.42 255 172 28
-1191.39 -130.539 1559.39 255 255 0
-239.128 125.466 1370.44 255 255 0
-429.017 69.0205 1554.93 255 255 0
-531.366 94.8474 1638.29 255 255 0
-552.171 73.3829 1648.01 255 255 0
-582.572 155.138 1610.78 255 255 0
-537.177 -354.04 1565.68 255 255 0
-644.673 146.001 1678.38 255 255 0
-459.392 -388.821 1450.96 255 255 0
-399.965 -426.586 1486.75 255 255 0
-275.071 104.983 1404 255 255 0
-1042.31 -8.75934 2230.04 255 255 0
-1031.9 -20.5272 2072.19 255 255 0
-238.519 156.148 1389.87 255 255 0
-237.653 154.162 1376.48 255 255 0
-936.406 -2.57854 1994.47 255 255 0
-516.147 -406.653 1499.37 255 255 0
-289.309 -129.116 2374.67 255 255 0
-561.859 -360.216 1640.44 255 255 0
-1018.91 63.1843 1986.22 255 255 0
-285.925 131.799 1433.63 255 255 0
-259.698 30.497 2056.01 255 255 0
302.395 -585.528 3680.41 255 255 0
-1089.92 36.0595 2089.71 255 255 0
-362.138 112.573 1484.29 255 255 0
-152.342 -65.202 2154.78 255 255 0
-603.517 152.977 1637.11 255 255 0
-376.248 178.659 1387.14 255 255 0
-632.733 298.768 1329.06 255 255 0
-461.975 2.04259 1558.66 255 255 0
-251.358 137.27 1402.97 255 255 0
-545.946 90.2806 1652.4 255 255 0
-536.444 -17.2619 1665.88 255 255 0
-183.004 253.99 1234.64 255 255 0
-574.683 -151.193 1671.13 255 255 0
-479.836 -295.551 1500.28 255 255 0
-423.516 -136.304 1504.36 255 255 0
-578.1 -327.769 1624.67 255 255 0
-325.509 30.6313 1475.09 255 255 0
-490.014 59.7164 1613.52 255 255 0
-750.951 94.5767 1786.25 255 255 0
-620.671 122.632 1676.08 255 255 0
-707.753 -304.434 2242.22 255 255 0
-58.4717 -50.4947 2345.53 255 255 0
-754.158 119.636 1755.77 255 255 0
-895.832 -150.239 1979.22 255 255 0
-435.113 12.3843 1540.77 255 255 0
-522.333 -8.4786 1624.74 255 255 0
-550.754 -204.3 2906.19 255 255 0
-288.601 -267.974 2332.5 255 255 0
-739.749 117.649 1772.13 255 255 0
-974.896 -207.457 2060.44 255 255 0
-948.036 -82.4672 2343 255 255 0
-951.633 -209.786 2034.53 255 255 0
-708.813 36.4931 1828.96 255 255 0
-522.086 -330.53 1534.12 255 172 28
-640.049 307.337 1332.75 255 255 0
-548.043 -11.2789 1650.96 255 255 0
-312.987 -401.353 1436.95 255 255 0
-330.499 -23.1339 1488.71 255 255 0
-490.003 4.57985 1596.65 255 172 28
-588.483 198.605 1573.48 255 255 0
-469.048 -222.675 2951.44 255 255 0
-509.81 -398.803 1535.41 255 172 28
-466.197 -381.929 1461.62 255 255 0
-919.704 -10.1392 1978.75 255 255 0
-863.779 -87.8611 2520.03 255 255 0
-706.441 322.993 1386.51 255 255 0
-465.536 -223.26 1814.4 255 255 0
-348.896 102.633 1468.51 255 255 0
-940.598 75.3951 1900.17 255 255 0
-405.751 -329.951 1450.86 255 255 0
-468.821 -347.172 1464.7 255 255 0
-655.238 316.183 1338.86 255 255 0
-518.057 95.9576 1624 255 255 0
-498.96 -435.301 1589.29 255 255 0
-236.76 157.212 1378.76 255 255 0
-57.499 -81.3589 2213.06 255 255 0
-316.195 130.797 1446.32 255 255 0
-389.558 110.37 1508.12 255 255 0
-204.585 236.799 1255.54 255 255 0
-474.411 -440.917 1698.83 255 172 28
-511.845 -405.144 1496.24 255 172 28
-574.429 68.1812 1729.83 255 255 0
266.56 -571.815 3634.12 255 255 0
-539.704 -372.206 1568.22 255 255 0
-473.618 99.0534 1583.64 255 255 0
-3260.56 -1032.2 -344.08 255 255 0
-157.469 -63.5437 2117.92 255 255 0
-317.748 110.881 1450.8 255 255 0
-138.212 -35.1307 2134.14 255 172 28
-161.061 2.99823 2149.21 255 255 0
-881.928 -144.499 1952.1 255 255 0
-431.664 7.89165 1563.72 255 255 0
-65.5559 -51.3372 2211.06 255 255 0
-508.71 -438.828 1596.92 255 255 0
-562.71 -382.1 1670.76 255 255 0
-498.384 -411.109 1513.29 255 172 28
-222.28 239.364 1244.75 255 255 0
-566.014 64.6801 1763.07 255 255 0
-508.876 -344.031 1520.43 255 255 0
-521.937 -22.2392 1628.47 255 255 0
-635.83 124.375 1723.16 255 255 0
-56.0646 -49.3466 2294.57 255 255 0
-492.647 -392.154 2579.72 255 255 0
-950.888 -226.899 2043.64 255 255 0
-33.296 -116.055 2270.58 255 255 0
-825.441 -202.085 1994.33 255 255 0
-301.889 -3.842 1961.92 255 255 0
-932.413 -169.25 2012.13 255 255 0
-182.046 44.8084 1398.72 255 255 0
-841.14 264.852 1504.27 255 255 0
-151.641 -93.185 2345.97 255 255 0
-80.763 -62.4705 2230.88 255 255 0
-423.561 15.5044 1542.89 255 255 0
-730.626 -272.154 2243.75 255 255 0
-980.908 -182.783 2058.31 255 255 0
-602.482 -361.717 2445.26 255 255 0
-913.207 -201.181 1989.43 255 255 0
-394.165 -7.89297 2185.12 255 255 0
-559.534 -208.853 2913.11 255 255 0
-936.342 -206.202 2013.02 255 255 0
-115.222 191.141 1328.74 255 255 0
-551.617 -11.0925 1649.34 255 255 0
-718.528 97.1073 1777.94 255 255 0
-248.099 216.224 1285.66 255 255 0
-343.656 -376.646 1387.84 255 255 0
-592.513 -208.583 2930.07 255 255 0
-947.909 -154.869 1994.85 255 255 0
-418.234 26.3737 1551.56 255 255 0
-436.05 -311.152 1452.88 255 255 0
-589.009 182.82 1510.19 255 172 28
-730.058 322.977 1415.79 255 255 0
-733.854 42.0323 1814.6 255 255 0
-351.666 -319.79 1418.44 255 255 0
-733.186 338.695 1416.26 255 255 0
-514.348 -370.971 1547.39 255 255 0
-754.383 321.096 1433.05 255 255 0
-536.486 -442.365 1633.98 255 255 0
-911.511 76.5683 1931.99 255 255 0
-393.825 -375.952 1438.42 255 255 0
-501.864 92.6541 1613.52 255 255 0
-487.117 -480.022 1691.49 255 255 0
-994.633 62.5428 1989.11 255 255 0
-665.165 402.154 1376.88 255 255 0
-387.94 -232.854 3031.6 255 255 0
-331.319 27.1119 1504.91 255 255 0
-916.486 93.1527 1859.15 255 255 0
-577.494 -361.214 1649.49 255 255 0
-476.849 -327.529 1515.18 255 172 28
-500.531 -354.607 1548.49 255 255 0
-307.907 -305.226 1410 255 255 0
-646.524 396.451 1360.49 255 255 0
-897.489 -241.035 1718.91 255 255 0
-639.387 327.021 1338.69 255 255 0
-458.399 15.0075 1570.63 255 255 0
-1052.05 59.139 2015.35 255 255 0
-1021.8 63.6553 1981.33 255 255 0
-564.485 -367.762 1673.31 255 255 0
-252.16 30.1377 2061.41 255 255 0
-580.327 155.745 1610.1 255 255 0
-329.895 133.997 1472.83 255 255 0
-274.432 212.247 1304.31 255 255 0
-270.314 59.082 1407.23 255 255 0
-349.215 35.7503 1487.15 255 255 0
-188.291 250.161 1236.51 255 255 0
-201.387 -2.96178 2150.68 255 255 0
-615.028 147.446 1631.76 255 255 0
-500.005 -37.8006 1817.81 255 255 0
-427.247 116.283 1544.37 255 255 0
-551.75 -247.242 1564.18 255 255 0
-552.882 -13.4716 1776.6 255 255 0
-472.518 168.182 1528.39 255 255 0
-157.209 -65.6986 2122.14 255 255 0
-483.591 -456.194 1680.25 255 255 0
1534.92 81.7125 666.577 255 255 0
-426.737 48.7755 1879.17 255 255 0
-531.992 -203.135 2692.01 255 255 0
-894.782 -39.8206 1995.2 255 255 0
-996.746 -65.899 2073.11 255 255 0
-238.681 17.0779 2095.3 255 255 0
-670.243 -293.112 2309.88 255 255 0
-534.539 1.99689 1629.94 255 255 0
-856.076 -180.878 1960.03 255 255 0
-504.397 53.5606 1633.46 255 255 0
-945.322 75.2435 1918.13 255 255 0
-717.322 98.9158 1774.22 255 255 0
-477.998 -248.186 3060.11 255 255 0
-268.732 216.202 1324.25 255 255 0
-948.172 -153.262 1988.61 255 255 0
-431.116 -401.667 1735.73 255 255 0
-525.543 152.387 1551.18 255 255 0
-520.096 -368.178 1543.43 255 255 0
-481.826 -479.169 1689.12 255 255 0
-1208.41 -148.337 1700.25 255 255 0
-549.948 8.02414 2037.55 255 255 0
-906.129 80.3405 1928.97 255 255 0
-974.401 -205.666 2054.41 255 255 0
214.348 -215.455 3703.22 255 255 0
-503.181 -355.957 1504.33 255 255 0
-849.082 -40.5127 1960.56 255 255 0
-724.496 324.186 1414.42 255 255 0
-454.824 -469.58 1735.22 255 255 0
-232.021 188.369 1256.41 255 255 0
-470.339 -229.696 2980.34 255 255 0
-653.861 141.233 1668.3 255 255 0
-567.213 -411.014 1619.15 255 255 0
-924.594 88.5278 1903.76 255 255 0
-539.748 -441.792 1640.85 255 255 0
-892.196 93.0495 1870.42 255 255 0
-81.8216 -91.72 2204.03 255 255 0
-492.706 -54.8453 1813.84 255 255 0
-413.319 -57.2472 1515.68 255 255 0
1421.24 60.2803 715.225 255 255 0
-454.59 2.4828 1559.08 255 255 0
-641.618 323.468 1338.82 255 255 0
-815.15 120.621 1788.37 255 255 0
1940.85 -437.346 535.945 255 255 0
-578.797 -26.2791 1720.36 255 255 0
-338.783 67.5921 1491.38 255 255 0
-561.268 -455.543 1612.37 255 255 0
-510.871 9.7835 1610.81 255 255 0
1144.75 679.246 523.39 255 255 0
-805.011 -14.6653 1911.98 255 255 0
-176.494 52.1694 1429.76 255 255 0
-980.722 -202.003 2065.15 255 255 0
-200.544 -31.6945 2027.83 255 255 0
-519.076 38.2715 1635.02 255 255 0
2145.11 -585.245 546.275 255 255 0
1597.02 -431.627 550.602 255 255 0
-422.962 53.3451 1576.78 255 255 0
1575.74 176.848 500.763 255 255 0
-511.227 -128.535 1588.95 255 255 0
-511.536 -89.3665 1600.16 255 255 0
-514.173 -102.683 1596.18 255 255 0
-509.2 -99.3211 1795.15 255 255 0
-511.456 -75.9759 1604 255 255 0
-513.08 -114.88 1592.75 255 255 0
-70.7548 -181.986 2176.59 255 255 0
-126.789 -60.4841 2252.52 255 255 0
-817.623 -200.607 1995.15 255 255 0
-61.064 -56.6734 2351.35 255 255 0
-925.619 -167.205 2012.4 255 255 0
-604.25 129.979 1677.08 255 255 0
-78.948 -64.0521 2233.48 255 255 0
-243.602 24.8052 2088.74 255 172 28
-878.243 -186.275 1975.45 255 255 0
-975.772 -180.835 2058.26 255 255 0
-5.51543 -200.541 2218.84 255 255 0
-690.294 77.5917 1786.89 255 255 0
-929.03 -204.143 2001.81 255 255 0
-481.2 -394.62 2587.58 255 255 0
-954.722 -155.493 1999.93 255 255 0
-295.98 -272.16 2331.61 255 255 0
-219.571 58.3021 1374.63 255 255 0
-953.117 -209.071 2025.91 255 255 0
-290.105 -241.845 2310.62 255 255 0
-997.418 65.9751 1945.72 255 255 0
-740.288 117.548 1767.08 255 255 0
-515.894 -7.38044 1622.57 255 255 0
-955.454 -204.92 2038.44 255 255 0
-427.56 14.1414 1539.95 255 255 0
-951.341 -4.69241 1987.24 255 255 0
-535.915 -403.732 1554.48 255 255 0
-465.599 -230.402 2981.35 255 255 0
-306.529 -400.077 1436.65 255 172 28
-547.376 -371.203 1631.67 255 255 0
-546.212 -10.6329 1647.84 255 255 0
-530.652 -357.939 1577.55 255 172 28
-416.845 26.6993 1549.74 255 255 0
-731.418 39.0584 1813.35 255 172 28
-634.777 311.975 1334.04 255 255 0
-868.507 -87.039 2516.76 255 255 0
-347.474 -319.939 1417.11 255 255 0
-567.065 -413.374 1586.55 255 255 0
-475.091 -179.891 1802.63 255 255 0
-223.743 229.05 1281.8 255 255 0
-907.574 79.2027 1929.06 255 255 0
-575.822 -409.249 1597.65 255 255 0
-334.926 -367.06 1402.58 255 255 0
-937.83 80.3175 1894.29 255 255 0
-492.422 3.31827 1595.58 255 255 0
-865.9 90.009 1874.34 255 255 0
-529.197 -441.829 1631.78 255 255 0
-387.629 -4.86637 2224.67 255 255 0
-892.602 92.3911 1870.26 255 255 0
-109.416 -93.1486 2188.21 255 255 0
-489.984 89.9293 1599.58 255 255 0
-564.94 -365.101 1615 255 255 0
-602.734 180.247 1530.64 255 255 0
-455.355 -318.278 1475 255 255 0
