ply
format ascii 1.0
comment object: list of points
element vertex 1029
property float x
property float y
property float z
property uchar red
property uchar green
property uchar blue
end_header
-0 0 0 0 255 0
36.8196 -36.6637 -31.0063 0 255 0
74.904 -75.3952 -53.7326 0 255 0
98.6245 -90.6268 -58.2955 0 255 0
137.224 -108.467 -66.0832 0 255 0
191.562 -140.879 -73.8806 0 255 0
221.217 -98.273 -85.5632 0 255 0
225.066 -48.5991 -84.7717 0 255 0
232.971 -6.68217 -82.1925 0 255 0
235.832 40.2735 -82.7588 0 255 0
193.46 79.9929 -90.9026 0 255 0
133.598 98.2835 -68.8287 0 255 0
101.664 103.905 -65.2786 0 255 0
62.6092 94.7765 -57.4784 0 255 0
32.2838 46.535 -57.0198 0 255 0
6.16989 15.0338 -57.6743 0 255 0
-25.9899 -21.3789 -58.3516 0 255 0
-65.463 -44.205 -56.2 0 255 0
-91.5199 -60.6221 -41.5245 0 255 0
-120.035 -87.9279 -36.5766 0 255 0
-141.466 -120.494 -22.1303 0 255 0
-166.298 -115.474 1.34839 0 255 0
-168.377 -67.2762 -17.3189 0 255 0
-156.842 -34.9965 -31.0246 0 255 0
-131.826 0.895198 -30.6999 0 255 0
-94.6747 39.9979 -48.6213 0 255 0
-44.8599 79.8074 -63.7704 0 255 0
-5.66021 95.8929 -78.8823 0 255 0
21.0997 72.9913 -94.0017 0 255 0
11.2534 28.0436 -96.0038 0 255 0
137.049 131.057 420.629 255 255 255
-108.297 -28.8769 533.304 255 255 0
217.453 129.568 415.849 255 255 255
71.2418 5.62305 472.821 204 85 0
263.758 114.789 436.731 255 255 0
192.906 -24.8026 486.218 255 255 255
83.3887 11.6466 264.708 255 255 255
65.6397 87.0412 467.193 204 85 0
274.983 133.95 400.964 255 172 28
263.191 124.549 419.014 255 255 255
251.565 -2.78859 444.452 204 85 0
237.823 -9.90806 453.862 255 255 255
197.088 -67.9968 558.317 255 172 28
150.928 65.0439 463.224 255 255 255
625.083 -160.102 871.302 255 255 255
-13.5521 -56.6696 471.156 204 85 0
4.37117 101.026 434.912 204 85 0
282.492 93.2368 471.573 255 255 255
-46.8951 127.441 420.48 255 255 0
-51.2459 108.359 455.046 204 85 0
79.8889 95.1363 458.048 255 255 0
279.118 104.509 453.43 255 255 255
-99.3236 -137.104 579.231 255 255 0
-5.95556 27.4914 490.757 255 255 0
267.07 93.998 472.19 255 172 28
17.2554 106.08 425.061 255 255 0
-8.88649 -37.1071 480.827 204 85 0
141.228 72.8793 475.047 255 255 255
90.2823 83.3091 502.032 255 255 0
5.1783 112.37 430.526 255 255 255
-21.9005 122.265 412.777 255 172 28
-81.3021 -23.2255 520.008 204 85 0
271.574 3.96138 429.21 255 255 255
171.813 78.6482 456.239 204 85 0
-16.3065 -4.23705 472.827 204 85 0
276.425 124.503 418.829 255 255 255
197.052 5.06618 500.262 204 85 0
156.527 74.4966 458.631 255 255 0
77.8647 83.8044 457.434 255 255 255
-67.9784 115.223 430.213 255 255 0
280.976 -34.6899 489.346 255 255 0
309.589 101.53 454.303 204 85 0
204.845 107.884 457.81 255 172 28
111.08 93.8877 457.434 255 255 255
264.196 0.471866 437.395 255 255 0
628.916 -207.292 883.59 204 85 0
191.747 79.0593 457.434 255 255 255
-43.3498 17.0485 507.455 204 85 0
265.048 104.509 451.099 255 255 255
195.272 -109.289 596.715 255 172 28
0.0611508 118.652 428.779 204 85 0
114.815 106.615 454.183 204 85 0
-135.047 137.473 456.983 255 255 255
75.7502 132.896 427.602 255 255 255
115.106 126.985 427.55 255 255 255
244.352 -63.1576 546.367 255 255 255
-171.73 36.1449 629.468 255 255 255
124.321 -6.61956 519.008 255 255 255
2.41305 -140.276 571.206 255 255 255
-108.325 -28.974 532.989 255 255 0
143.174 71.2909 460.61 255 255 0
-13.8364 97.8376 449.775 255 255 255
-68.1632 -157.944 619.965 255 255 255
491.559 -58.9005 666.499 255 255 255
-63.3486 104.175 443.377 255 255 0
282.957 93.1898 471.643 204 85 0
232.352 -17.4478 467.18 255 255 0
-6.70443 115.432 420.398 255 172 28
156.992 54.7735 460.097 204 85 0
-13.8016 -56.8839 473.571 204 85 0
128.966 52.7149 481.038 255 255 0
70.9335 68.9807 460.447 255 255 255
615.768 -98.087 693.387 255 255 255
-192.006 -186.253 802.46 255 255 255
-116.617 -108.899 533.865 255 255 255
-179.77 86.3467 532.5 255 255 255
-14.5174 -76.9016 299.749 255 255 255
-83.6319 -142.268 620.452 255 255 255
-38.2011 100.241 452.583 255 255 255
-81.4129 -23.8223 520.9 255 172 28
183.655 79.7689 447.665 255 255 255
-126.48 -133.806 590.405 255 255 255
363.209 6.32392 412.809 255 255 0
-24.8908 105.917 439.402 255 255 255
26.3091 139.978 426.054 204 85 0
130.002 95.0406 451.974 204 85 0
509.065 -31.2664 648.751 255 255 255
601.703 -113.781 792.972 255 255 255
229.901 14.5293 459.872 255 255 255
11.6711 109.09 404.223 255 255 255
364.826 28.0772 423.003 255 172 28
347.129 -7.46976 454.094 255 255 255
27.2765 104.019 422.35 255 255 0
-70.5066 51.2007 455.245 255 255 255
8.75991 144.618 421.275 255 255 0
-130.814 137.233 456.215 255 255 0
-137.195 119.704 483.939 255 255 255
-71.4171 145.47 404.139 255 255 255
-154.426 118.851 482.427 255 255 255
284.272 291.702 747.149 255 255 255
235.743 135.203 405.653 255 255 255
121.678 -13.9177 520.571 255 255 255
275.494 134.202 401.878 255 255 255
239.058 -10.222 457.069 255 255 0
279.315 104.384 453.447 255 255 255
263.512 124.303 419.925 255 255 0
362.186 -12.8739 453.022 255 255 0
-68.4437 -159.095 620.779 255 255 255
212.071 74.276 464.737 255 255 255
255.518 134.239 403.508 255 255 255
-139.533 138.972 451.754 255 255 0
489.069 -57.1944 662.957 255 255 0
-71.3981 65.1411 454.815 255 255 0
213.647 -18.2704 484.428 255 255 0
157.904 75.036 457.985 255 255 0
613.918 -152.987 860.607 255 255 0
589.49 -81.2889 733.141 255 255 0
-25.5293 150.759 413.419 255 255 255
474.131 21.8769 436.948 255 255 0
-49.7955 -96.2261 501.224 255 255 255
291.868 75.9558 452.624 255 255 255
284.663 -34.2232 493.826 255 255 255
221.747 -70.9094 569.346 255 255 255
196.527 4.97007 499.375 255 255 0
-37.3297 136.654 480.078 255 255 255
284.632 61.5157 452.327 255 255 255
333.011 -19.2949 462.511 255 255 255
241.532 -45.7256 518.424 255 255 255
-111.443 -128.686 600.522 255 255 255
68.7052 31.336 461.862 255 255 0
265.849 104.891 453.083 255 255 255
233.787 74.909 510.941 255 255 255
22.4086 37.2409 479.319 255 255 0
256.325 79.7175 490.811 255 255 255
-13.4107 -7.94394 457.031 255 255 255
1.8887 115.572 417.783 255 255 255
270.508 73.401 468.452 255 255 255
227.651 -0.271927 467.736 204 85 0
39.1598 38.4031 482.501 255 255 255
226.996 108.671 471.974 255 255 255
-71.2286 -100.094 502.512 255 255 255
-52.9752 39.3478 505.126 255 255 255
136.724 64.4005 476.813 255 255 255
304.183 73.8908 446.387 255 255 255
-160.262 71.7398 514.115 255 255 0
632.233 -175.332 817.218 255 255 255
300.417 17.7619 405.584 255 255 255
25.4173 151.3 402.401 255 255 0
56.5261 138.367 422.544 255 255 0
115.138 132.704 425.303 255 255 255
259.413 428.748 1000 255 255 255
266.346 302.409 744.338 255 255 255
-14.5981 -130.528 566.764 255 255 255
-137.291 119.809 484.545 255 255 0
-159.312 137.478 450.263 255 255 255
235.66 134.701 404.974 255 255 255
490.147 5.15717 430.387 255 255 255
-13.336 96.342 446.73 255 255 0
-5.08315 26.9162 489.645 255 255 255
-11.5301 -81.6362 460.817 255 255 255
157.547 74.9184 458.204 255 255 0
106.429 69.3255 449.69 255 255 255
473.936 21.6327 436.578 255 255 0
-31.3356 140.519 479.996 255 255 255
-350.742 -60.9591 781.081 255 255 255
-4.61254 114.136 416.811 255 255 0
-89.6407 -140.632 628.54 255 255 255
42.9729 56.02 475.332 255 255 255
22.8949 105.737 430.572 255 255 0
-49.2323 110.606 416.647 255 255 255
226.813 -38.3748 500.015 255 255 0
-49.0107 106.707 451.099 204 85 0
204.911 107.85 457.894 255 255 255
63.6955 60.8066 466.329 255 255 255
12.2061 49.577 453.369 255 255 255
269.272 43.3126 461.234 255 255 255
-10.4146 105.528 430.327 255 255 255
183.007 -8.10349 507.167 255 255 255
-17.8603 -0.727757 479.109 255 255 0
195.782 -108.525 595.319 255 172 28
26.956 139.453 424.971 255 172 28
57.4136 129.683 431.589 255 255 255
475.052 -64.2754 685.867 255 255 0
-121.18 46.8515 438.488 255 255 255
-154.333 107.974 504.516 255 255 255
275.202 133.833 401.334 255 255 0
203.14 54.8721 502.353 255 255 0
212.038 74.0738 466.018 255 255 255
166.64 -49.8965 535.741 255 255 255
480.689 -119.185 417.952 255 255 0
-34.891 88.0142 465.073 255 255 255
475.163 -109.797 418.612 255 255 0
264.194 0.634526 437.106 255 255 255
-12.107 -81.3918 462.724 255 255 255
234.358 -17.4822 470.811 255 255 0
253.714 -12.9261 457.341 255 255 255
-44.4918 19.597 510.674 255 255 0
228.992 93.1842 481.483 255 255 255
-77.819 109.15 460.732 255 255 255
255.597 -33.4801 488.001 255 255 255
266.133 104.347 452.33 255 255 0
-82.1988 -23.8118 524.873 255 255 255
286.259 -33.7803 497.793 255 255 255
-62.6541 121.916 407.255 255 255 255
292.852 5.4132 428.242 255 255 0
-172.583 85.5111 533.339 255 255 255
246.99 33.8925 469.601 255 255 255
189.798 82.2148 458.27 255 255 255
93.0476 92.7808 455.5 255 255 0
478.829 -153.608 412.46 255 255 0
244.268 -46.659 510.751 255 255 255
-176.557 -77.3427 575.806 255 255 255
493.402 -73.8546 421.861 255 255 0
132.73 97.3462 456.505 255 255 0
11.5033 113.952 420.874 255 255 255
492.883 -28.5871 426.701 255 255 0
512.872 23.886 430.08 255 255 0
-160.107 138.19 451.824 255 255 0
-68.4367 53.2349 375.556 255 255 255
279.602 104.979 454.424 255 255 255
194.269 -24.0595 493.273 255 255 0
212.164 74.4041 467.876 255 255 255
-6.49009 27.5653 492.049 255 255 0
238.567 -10.7577 454.049 255 255 255
197.466 -66.6447 563.5 255 255 255
48.4813 18.409 477.964 255 255 0
264.497 1.1075 438.231 255 255 255
-11.2606 -81.4879 461.776 255 255 255
332.52 -32.7897 489.471 255 255 0
-71.3298 63.3943 456.009 255 255 0
-25.5382 150.259 413.979 255 172 28
107.516 69.0058 450.621 255 255 255
144.147 75.3746 469.57 255 255 255
126.914 66.0847 445.345 255 255 255
270.435 -43.9578 507.46 255 255 255
318.21 14.1598 408.867 255 255 0
183.855 84.9109 467.524 255 255 0
195.422 -107.659 596.851 255 255 255
-83.7818 120.352 447.591 255 255 255
-379.659 696.295 1000 255 255 255
505.379 4.63394 427.232 255 255 0
479.008 -83.5191 423.914 255 255 255
75.0689 134.355 429.4 255 255 0
136.142 137.754 415.995 255 255 255
193.246 124.982 421.464 255 255 255
25.6987 151.057 402.705 255 255 0
-236.979 80.0513 530.549 255 255 255
211.841 74.5225 468.948 255 255 255
-155.024 118.537 484.226 255 255 255
227.174 -52.583 538.276 255 255 255
308.13 -21.3061 463.476 255 255 255
-28.9438 -93.0694 503.992 255 255 255
-111.371 -130.295 575.758 255 255 255
353.473 -22.8897 468.589 255 255 0
16.6255 106.715 426.88 255 255 0
-92.2376 -137.605 584.37 255 255 255
215.614 -78.2548 575.896 255 255 0
10.6283 49.8003 451.073 255 255 255
269.255 -42.5099 512.032 255 255 255
331.305 -18.66 460.992 255 255 0
-64.0309 124.704 408.83 255 255 0
285.519 -34.6615 493.534 255 255 255
-49.037 125.818 408.743 255 255 255
244.171 -45.9733 509.569 255 255 255
71.7003 62.8011 461.084 255 255 0
-5.27693 115.201 420.37 255 255 0
-7.31153 104.817 382.646 255 255 255
477.995 -84.5138 421.211 255 255 255
479.504 7.81105 439.527 255 255 0
57.3468 137.307 424.62 255 255 0
53.3371 233.28 719.829 255 255 255
490.485 5.6772 430.156 255 255 255
136.099 137.604 416.384 255 255 255
-68.1329 143.787 399.953 255 255 255
154.136 124.412 420.716 255 255 255
-159.317 137.505 450.829 255 255 0
201.453 73.2249 280.274 255 255 255
279.288 104.554 454.397 255 255 0
244.886 -64.0153 554.07 255 255 0
264.007 114.972 438.447 255 255 0
255.3 134.045 404.439 255 255 255
251.162 -1.23051 447.013 255 255 255
65.3241 86.9113 467.838 255 255 0
197.176 -67.4844 559.502 255 255 255
489.084 -62.5363 662.986 255 255 255
269.882 5.5853 434.185 255 255 255
229.321 92.6483 479.763 255 255 0
-116.507 -130.543 583.832 255 255 255
23.3082 37.7389 479.206 255 255 0
102.925 75.1349 471.365 255 255 255
133.765 56.5022 391.403 255 255 255
131.833 47.0575 475.418 255 255 0
233.954 75.7187 514.437 255 255 255
500.281 21.397 432.548 255 255 255
362.625 5.49484 407.812 255 255 0
74.6972 77.6809 477.152 255 255 255
-13.3253 -56.7971 473.061 255 255 0
255.857 -32.6759 487.271 255 255 255
-72.3692 -137.789 588.595 255 255 255
-42.645 -122.324 472.708 255 255 255
-377.451 699.103 1000 255 255 255
-40.7078 123.626 407.894 255 255 255
13.3685 93.6677 335.697 255 255 255
291.921 4.65379 422.996 255 255 255
92.1806 92.6331 456.647 255 255 255
126.463 96.6218 454.425 255 255 255
195.444 -107.856 595.074 255 255 0
106.221 96.757 461.599 255 255 0
476.693 -64.4414 689.049 255 255 255
-74.3701 151.143 413.105 255 255 0
-190.346 152.526 428.169 255 255 0
267.193 94.223 473.666 255 255 0
476.413 20.1905 440.296 255 255 255
238.065 -8.73558 456.783 255 255 0
-39.8451 89.6678 473.744 255 255 255
-39.2552 -110.631 534.87 255 255 255
121.144 71.2782 458.032 255 255 255
307.548 -21.0615 463.6 255 255 255
138.34 70.5487 453.054 255 255 255
-403.084 -17.5418 755.14 255 255 0
171.969 79.163 458.732 255 255 255
57.8756 32.8649 475.647 255 255 0
158.013 74.7248 462.06 255 255 255
222.684 106.075 468.383 255 255 255
-55.2577 126.951 420.102 255 255 255
255.74 -32.9665 487.622 255 255 255
191.433 81.0869 455.014 255 255 255
14.7909 98.3875 330.8 255 255 255
282.204 -36.2741 508.652 255 255 255
-67.5532 -94.7734 516.473 255 255 255
129.183 95.1646 454.317 255 255 0
472.815 -61.3091 673.036 255 255 0
300.629 17.0805 409.3 255 255 0
-70.5851 127.112 397.556 255 255 255
198.9 61.204 501.729 255 255 255
62.8312 1.22344 466.322 255 255 255
487.512 -57.8146 667.464 255 255 255
154.992 8.44455 536.266 255 255 255
110.904 63.8083 452.205 255 255 0
135.414 75.0526 472.702 255 255 255
79.3583 72.3826 458.375 255 255 0
126.859 7.79613 528.361 255 255 255
-47.9502 123.623 416.53 255 255 0
233.43 75.272 512.644 255 255 0
-148.506 -118.832 563.846 255 255 255
205.114 107.455 455.914 255 255 0
255.079 -38.8274 500.523 255 255 255
24.7078 151.384 402.564 255 255 255
76.8459 128.067 431.075 255 255 255
262.779 124.811 421.996 255 255 255
475.592 21.1124 438.522 255 255 255
192.417 -25.6702 494.325 255 255 255
-71.2747 64.8022 453.682 255 255 0
16.8937 106.455 425.057 255 255 255
156.048 74.7013 458.198 255 255 255
172.498 78.2495 462.21 255 255 0
34.4595 40.2568 458.869 255 255 255
261.125 68.3482 481.217 255 255 255
-17.0889 -4.59658 474.31 255 172 28
-36.4441 89.0427 465.809 255 255 255
93.1702 93.1535 453.272 255 255 0
97.9342 -94.5364 620.147 255 255 0
318.058 14.4744 409.618 255 255 0
328.919 37.7782 -508.175 255 255 255
274.889 80.8703 467.991 255 255 255
364.848 27.6678 422.635 255 255 0
-43.5141 16.3521 508.847 255 255 255
168.606 -127.175 590.162 255 255 255
171.982 151.991 767.107 255 255 255
263.921 114.879 436.583 255 255 0
-27.2069 90.5412 465.714 255 255 0
279.383 104.195 452.718 255 255 255
252.138 -2.20856 448.564 255 255 0
47.3907 17.5426 474.743 255 255 255
309.871 101.716 454.92 255 172 28
-350.144 -56.1812 782.077 255 255 255
81.6031 93.7199 459.303 255 255 255
-6.14203 115.124 417.537 255 255 0
-108.99 -29.2708 536.765 255 255 255
230.092 92.5657 477.155 255 255 255
-22.0247 -143.949 593.078 255 255 255
158.976 53.7952 461.484 255 255 255
-10.3712 39.481 455.216 255 255 255
-14.04 -56.8388 472.683 255 255 0
70.4031 -134.429 622.525 255 255 255
197.866 5.11231 501.237 204 85 0
183.054 -7.19243 507.93 255 255 0
62.6876 62.6737 464.646 255 255 255
-178.466 83.3359 538.589 255 255 0
-36.5724 125.197 462.479 255 255 255
621.765 -198.687 885.997 255 255 255
-25.257 51.7123 464.022 255 255 0
301.068 72.0216 438.343 255 255 255
35.4029 24.4125 480.807 255 255 0
114.789 123.057 -178.395 255 255 255
76.3991 128.783 432.684 255 255 0
263.582 160.795 749.643 255 255 255
235.183 134.823 403.995 255 255 255
274.678 133.831 399.272 255 255 0
-143.044 138.199 476.573 255 255 0
516.917 -21.35 617.996 255 255 0
-67.2502 47.1004 458.161 255 255 0
-410.284 -21.6447 773.545 255 255 255
267.304 94.3678 471.544 255 255 0
66.0805 87.4904 468.801 255 172 28
589.215 -86.1294 730.258 255 255 255
281.106 85.8469 469.901 255 255 255
244.597 -61.3452 545.027 255 255 0
-46.1512 123.217 409.577 255 255 255
-38.4402 96.7015 456.823 255 255 255
20.9067 105.411 436.077 255 255 255
-21.2069 -93.8517 497.031 255 255 255
269.291 4.22341 425.235 255 255 0
301.688 -20.9914 459.072 255 255 255
226.556 -0.291018 462.746 255 255 255
225.188 -15.9829 472.088 255 255 255
129.594 95.3826 457 255 255 0
-343.932 -76.9373 802.915 255 255 0
27.0087 139.705 426.144 255 255 0
24.744 151.967 402.375 255 255 0
235.15 134.891 404.522 255 255 255
217.621 125.452 420.255 255 255 255
48.1009 17.695 476.872 255 255 255
192.169 -24.2706 486.342 255 255 0
156.531 73.7057 457.171 255 255 0
-107.59 -28.3913 533.59 255 255 255
3.01089 101.221 438.817 255 255 0
-44.4881 122.712 397.083 255 255 255
-30.2776 -111.226 529.678 255 255 255
1.50847 116.141 418.98 255 255 0
232.823 -18.7114 469.449 255 255 255
249.776 54.3352 473.055 255 255 255
-3.89657 31.3154 484.803 255 255 255
623.699 -206.417 869.672 204 85 0
93.9592 93.5326 457.146 255 255 0
156.87 54.0409 460.921 255 172 28
195.417 -108.311 591.727 255 255 0
288.497 11.0407 418.993 255 255 255
-131.909 -38.2755 553.617 255 255 255
205.164 107.478 457.243 255 255 255
-81.1363 -23.7371 520.721 255 172 28
321.013 -145.186 631.045 255 255 0
97.8685 -95.8133 616.521 255 255 255
55.9558 138.477 423.949 255 255 255
287.429 195.472 774.465 255 255 255
-159.805 138.79 451.999 255 255 255
244.324 -61.8664 543.236 255 255 0
200.761 -47.7699 520.149 255 255 255
-15.9307 114.213 423.637 255 255 255
-61.3325 122.105 404.827 255 255 255
282.699 93.0594 470.227 255 255 0
213.257 -19.7536 478.42 255 172 28
-183.892 84.9581 550.402 255 255 255
141.54 57.8972 469.379 255 255 255
68.2053 29.6384 461.534 204 85 0
-82.642 109.128 491.802 255 255 255
277.286 -32.7239 477.313 255 255 255
616.175 -65.7418 699.779 255 255 255
182.487 -7.62293 505.223 255 255 0
-9.1451 28.0616 490.164 255 255 0
-23.4254 122.074 424.56 255 255 0
-145.446 -120.155 560.546 255 255 255
204.706 107.649 456.357 255 255 255
227.283 -0.908456 468.006 255 255 0
115.082 106.593 455.422 255 255 0
364.416 27.9763 422.069 255 255 0
237.636 11.3666 463.659 255 255 255
-58.7889 -103.426 523.68 255 255 255
154.25 41.2544 458.421 255 255 255
26.6389 105.379 424.268 255 255 0
126 81.2455 451.371 255 255 255
-42.8905 17.2885 508.859 255 172 28
301.211 71.9045 439.722 255 255 0
163.038 -15.3397 510.364 255 255 255
196.4 23.1041 501.877 255 255 255
155.77 136.777 412.96 255 255 255
328.183 259.301 1000 255 255 255
235.272 134.992 405.047 255 255 255
278.871 104.161 452.318 255 255 255
-108.038 -29.0096 535.788 255 255 0
252.011 -2.23441 445.994 255 172 28
-12.5811 97.773 448.978 255 255 0
200.016 63.2246 492.41 255 255 255
170.682 77.4136 456.679 255 255 255
198.486 -69.4884 561.286 255 255 0
-352.715 -61.5611 787.091 255 255 255
-15.6529 113.242 426.846 255 255 255
478.895 -118.883 414.434 255 255 255
-149.827 -125.377 582.093 255 255 255
622.723 -77.6805 706.25 255 255 255
272.069 73.0072 471.172 255 255 255
-12.5697 40.6235 465.065 255 255 0
205.186 107.268 461.33 255 255 255
265.478 104.643 451.537 255 255 0
98.3441 -79.8769 620.801 255 255 255
477.526 -154.207 410.742 255 255 255
188.987 20.578 485.055 255 255 255
491.791 -135.434 410.63 255 255 0
-149.602 126.225 476.554 255 255 255
-105.837 138.733 449.549 255 255 255
-170.931 35.8308 632.167 255 255 255
194.19 -25.4165 488.272 255 255 0
275.593 134.646 403.049 255 255 0
238.254 -9.60123 454.081 255 255 255
69.5519 5.30442 468.822 255 255 0
155.512 73.3335 450.766 255 255 0
172.889 79.2787 458.764 255 255 255
4.8474 101.454 436.554 255 172 28
524.376 -137.164 416.994 255 255 255
276.544 -34.1191 480.566 255 255 255
617.155 -65.4351 701.915 255 255 0
-101.416 -143.222 603.151 255 255 255
292.492 75.6122 453.269 255 255 0
-46.0731 125.311 411.989 255 255 0
-61.5587 121.353 409.727 255 255 255
-172.068 85.7685 535.552 255 255 255
327.689 17.058 427.848 255 255 0
-38.5664 100.986 456.258 255 255 255
359.265 5.49923 410.849 255 255 255
-82.0565 67.3325 457.872 255 255 255
246.788 26.5843 460.912 255 255 255
600.155 -116.504 789.912 255 172 28
-81.3529 105.222 460.784 255 255 255
128.035 94.133 454.902 255 255 0
365.287 28.737 424.112 255 255 0
26.9866 104.277 428.589 255 255 255
-153.476 66.8701 491.213 255 255 255
491.462 -73.8071 417.638 255 255 255
-137.655 138.104 450.615 255 255 255
-133.673 100.076 521.068 255 255 255
-143.244 47.4745 611.924 255 255 255
-133.671 100.074 521.062 255 255 255
-159.115 138.76 453.217 255 255 255
235.854 135.537 406.987 255 255 0
-69.7937 135.793 401.196 255 255 0
-19.6431 52.0848 473.08 255 255 255
49.4621 20.5117 481.175 255 255 0
599.373 -97.5967 674.184 255 255 255
272.605 4.34934 431.126 255 172 28
267.328 94.3214 471.433 255 255 0
116.556 71.6614 470.577 255 255 255
-137.861 -37.416 553.753 255 255 255
-102.527 -163.279 640.599 255 255 255
226.19 -14.8049 467.616 255 255 255
-66.6241 66.0691 448.261 255 255 0
-18.0101 34.9409 474.961 255 255 255
-81.0943 39.1584 455.499 255 255 255
-105.186 -119.838 556.549 255 255 255
-13.3675 -56.4153 472.003 255 255 0
480.181 -112.097 417.406 255 255 255
221.92 104.401 459.472 255 255 0
253.306 55.495 475.184 255 255 255
-72.7019 122.418 508.412 255 255 255
272.316 74.3463 471.114 255 255 255
4.35027 43.1664 454.298 255 255 255
257.014 80.1345 491.331 255 255 255
628.365 -53.5233 672.299 255 255 255
93.6041 93.2133 455.99 255 255 255
-15.9595 -4.06446 474.826 255 255 0
605.832 -106.596 722.536 255 255 255
-24.5245 107.228 444.724 255 255 0
735.352 -191.953 797.609 255 255 0
467.403 -50.1834 431.817 255 255 255
227.884 -0.0053142 467.973 255 172 28
32.3475 30.7661 483.616 255 255 255
485.479 -66.6507 698.331 255 255 0
238.981 12.7154 465.783 255 255 255
173.326 -70.7052 587.922 255 255 255
-236.116 -13.8024 713.326 255 255 255
25.7 153.151 404.983 255 255 255
156.31 137.235 414.637 255 255 255
-104.961 138.58 448.232 255 255 255
280.233 115.847 440.609 255 255 255
355.447 5.27339 425.279 255 255 0
263.5 125.07 420.959 255 255 255
238.844 -9.39952 454.637 255 255 255
-66.8864 -158.14 615.049 255 255 255
-32.1271 91.404 476.417 255 255 0
-127.345 -36.6461 551.793 255 255 0
255.533 134.854 404.339 255 255 0
122.148 71.4799 455.569 255 255 255
-158.473 -16.0468 564.536 255 255 255
103.549 65.9085 464.206 255 255 255
233.525 -18.6792 469.86 255 255 255
92.5334 65.8985 468.396 255 172 28
292.459 -35.2149 508.278 255 255 255
-9.82598 99.8541 442.889 255 255 255
-38.1982 102.13 463.13 255 255 0
-4.65439 27.2138 489.533 255 255 0
359.269 6.03507 409.211 255 255 255
506.274 -133.697 401.464 255 255 255
273.248 45.4266 446.657 255 255 255
270.761 106.779 460.013 255 255 255
250.4 42.9909 471.126 255 255 0
275.835 66.9434 473.128 255 255 255
94.6033 94.225 458.712 255 172 28
-26.5612 33.8952 484.512 255 255 255
657.742 -92.12 666.188 255 255 0
-4.85786 114.65 416.473 255 255 0
-119.81 20.8243 568.684 255 255 0
-103.514 26.359 555.766 255 255 0
-72.0134 50.3465 458.787 255 172 28
-94.4259 72.251 453.344 255 255 255
30.3241 160.262 471.542 255 255 255
551.163 -6.22432 568.91 255 255 255
-120.838 135.786 447.13 255 255 255
-143.142 47.6928 612.688 255 255 0
244.841 -63.2447 546.068 255 255 0
-8.90414 -125.35 555.622 255 255 255
-107.841 -29.1507 534.913 255 255 255
362.188 -12.7866 452.399 255 255 0
-67.3559 -159.159 621.599 255 255 0
260.291 112.129 431.504 255 255 0
508.279 -59.9163 688.299 255 255 255
-92.1852 -133.567 579.903 255 255 255
-55.1006 -106.701 521.971 255 255 255
-109.512 -116.436 546.679 255 255 255
624.223 -165.091 859.537 255 255 0
280.63 105.042 456.09 255 255 0
267.47 94.4327 471.895 255 255 0
586.318 -83.5069 724.385 255 255 0
-25.8823 60.7721 466.686 255 255 255
122.33 72.1608 454.897 255 255 255
-18.478 35.8917 479.963 255 255 0
-45.4843 116.575 433.234 255 255 255
-17.0487 113.889 422.464 255 255 0
-303.07 -87.6231 827.289 255 255 255
25.5026 108.986 438.138 255 255 255
623.919 -78.4415 707.451 255 255 0
639.172 -87.6043 682.437 255 255 0
55.6888 63.809 466.184 255 255 255
-343.844 -82.3539 791.086 255 255 255
245.685 -40.3017 500.619 255 255 0
361.991 6.03631 412.041 255 255 255
184.871 -6.75176 511.097 255 255 0
258.09 80.4729 492.74 255 172 28
271.669 74.1853 470.861 255 255 0
479.955 -118.71 415.286 255 255 255
619.863 -54.8513 664.985 255 255 0
-124.288 -2.01005 558.623 255 255 255
4.38038 39.893 443.611 255 255 255
-68.9834 102.664 433.111 255 255 255
-74.055 -119.277 554.9 255 255 255
27.2606 16.9943 501.001 255 172 28
25.6459 150.828 443.507 255 255 255
-7.81144 149.731 415.697 255 255 255
239.105 13.3877 465.143 255 255 255
301.026 40.7465 426.409 255 255 255
-194.798 -195.186 831.058 255 255 255
-171.234 35.7431 634.265 255 255 0
-136.448 120.645 487.126 255 255 255
-128.018 60.6119 592.366 255 255 255
156.482 137.423 415.28 255 255 0
-142.673 -111.831 539.896 255 255 255
217.913 -78.3342 576.784 255 255 0
195.927 136.446 410.783 255 255 255
195.269 -25.7073 489.727 255 255 0
491.18 -135.527 410.446 255 255 255
215.938 76.3762 473.299 255 255 0
-93.9901 -134.855 611.989 255 255 255
236.671 -10.1507 450.978 255 255 255
-109.129 -116.678 549.563 255 255 255
521.628 -24.9581 632.27 255 255 255
-100.348 -162.627 627.263 255 255 255
-150.169 -49.5298 576.034 255 255 0
149.667 64.2999 462.949 255 255 255
147.154 37.5853 469.941 255 255 0
-82.3151 38.4903 454.38 255 255 255
257.31 -61.7616 533.355 255 255 255
-117.028 -132.647 589.588 255 255 255
284.149 -34.9176 491.457 255 255 255
-309.165 -89.3327 857.102 255 255 255
72.3965 66.7828 476.525 255 255 255
204.984 108.251 458.826 255 255 255
-94.9403 -117.733 553.112 255 255 255
-50.0259 111.322 462.629 255 255 0
293.07 75.4096 453.976 255 255 0
-86.8727 -26.5107 529.035 255 255 255
224.94 -37.4747 499.843 255 255 255
-16.1687 -0.0836749 479.247 255 255 255
-124.609 -1.39943 561.891 255 255 255
290.922 3.51784 421.552 255 255 255
500.768 -134.381 396.405 255 255 255
481.059 -111.986 418.008 255 255 255
114.782 105.63 455.377 255 255 0
128.537 93.5865 451.779 255 255 255
155.139 42.9278 461.732 255 255 255
-116.153 120.71 486.917 255 255 255
-126.728 133.808 464.766 255 255 255
25.1539 152.669 402.311 255 255 0
58.1777 132.323 440.078 255 255 0
-137.591 131.306 471.042 255 255 255
275.5 135.111 403.609 255 172 28
491.869 -135.269 411.288 255 255 255
299.243 146.207 373.306 255 255 0
496.162 -60.9661 673.991 255 255 255
50.7065 22.0682 486.22 255 255 0
609.474 -99.6355 686.037 255 255 255
70.2062 5.93359 470.916 255 255 0
-168.105 15.8971 661.419 255 255 255
635.377 -131.307 381.087 255 255 255
-25.4576 152.357 416.231 255 255 255
-70.3363 122.746 403.832 255 255 255
576.965 -2.98545 562.279 255 255 255
613.735 -66.4753 697.373 255 255 0
66.4747 88.3216 471.056 255 255 255
624.414 -128.005 763.926 255 255 255
310.12 101.99 455.659 255 172 28
-3.72033 -163.662 714.486 255 255 255
-11.9391 110.288 434.502 255 255 255
273.048 44.1048 449.127 255 255 255
-82.2644 39.8503 456.18 255 255 255
158.46 75.421 458.523 255 255 255
-5.72409 51.8597 442.627 255 255 255
-55.7364 -143.958 594.537 255 255 255
664.689 -98.5531 664.049 255 255 255
-25.1831 105.21 441.294 255 255 255
-16.0343 -3.94454 475.077 255 255 255
-65.9104 114.109 413.402 255 255 255
-86.6567 -26.6689 528.487 255 255 255
27.2989 38.182 482.405 255 255 255
157.9 54.2505 462.584 255 255 0
-52.1374 39.6121 586.606 255 255 255
551.649 -6.28521 570.305 255 255 255
-79.4188 102.354 450.632 255 255 255
767.44 -149.682 730.788 255 255 255
-127.913 60.8922 595.347 255 255 255
356.104 5.38421 425.719 255 255 0
-107.842 -29.2093 535.624 255 255 255
-68.9497 141.172 411.855 255 255 0
492.174 -135.228 410.724 255 255 255
-127.693 -36.4871 550.366 255 255 255
-93.0676 -132.19 575.3 255 255 255
629.725 -167.014 866.079 255 255 255
-25.2866 152.279 416.107 255 255 255
214.474 -19.4683 479.817 255 255 0
252.262 -1.71565 446.374 255 255 0
149.373 63.7099 462.426 255 255 0
-0.524092 -171.623 717.716 255 255 255
-80.9571 40.8938 460.25 255 255 0
157.189 74.9594 455.513 255 255 0
-49.6903 107.993 461.034 255 172 28
65.538 61.0611 461.08 255 255 255
-45.7081 124.344 407.028 255 255 0
213.603 100.962 449.471 255 255 255
-17.1712 36.8214 484.489 255 255 255
-20.3329 94.7569 455.431 255 255 255
-34.2198 114.579 421.103 255 255 255
-19.8924 107.89 403.739 255 255 255
-245.162 -33.6632 733.437 255 255 255
249.686 58.2089 476.301 255 255 0
658.306 -93.2447 665.565 255 255 0
-81.036 -23.6555 519.842 255 255 0
-123.742 -2.02495 557.981 255 255 0
-16.1693 -3.57046 474.937 255 172 28
-36.2309 17.5612 519.352 255 255 255
21.092 142.761 425.565 255 255 0
-71.2545 104.445 446.601 255 255 0
-74.4268 -119.229 549.127 255 255 255
251.834 36.426 475.716 255 255 255
476.521 -111.462 414.466 255 255 255
364.992 29.0353 423.967 255 255 0
156.708 137.707 415.956 255 255 255
-107.465 -28.9515 537.05 255 255 0
213.852 74.7099 470.117 255 255 255
-116.965 -111.418 545.743 255 255 255
-92.1315 -131.893 575.709 255 255 255
-312.353 -17.3913 736.66 255 255 0
623.228 -158.006 868.429 255 255 255
590.229 -84.9176 729.126 255 255 255
230.187 93.227 485.186 255 255 255
267.514 94.7969 471.321 255 172 28
-37.9898 99.9464 461.141 255 255 0
-13.2229 -55.8585 472.756 255 255 0
27.758 -126.515 547.236 255 255 255
-20.0671 54.4687 472.605 255 255 0
255.178 135.053 404.94 255 255 255
277.111 125.111 421.253 255 255 255
-7.33762 117.463 422.56 255 255 255
-8.27099 -36.1217 482.904 255 255 0
291.855 75.5272 452.55 255 255 0
-21.1808 123.492 418.365 255 255 255
-118.807 21.5783 572.961 255 255 255
269.74 73.643 468.62 255 255 0
-31.4139 31.9243 482.679 255 255 255
-342.274 -22.843 752.291 255 255 255
4.82829 42.0159 448.015 255 255 0
-41.8044 17.1573 514.129 255 255 0
116.266 107.694 458.654 255 255 0
-117.652 130.411 469.137 255 255 255
-105.356 138.995 449.966 255 255 255
77.0634 139.502 423.871 255 255 255
-158.576 138.941 453.432 255 255 255
-143.25 47.2188 614.311 255 255 255
417.651 289.21 1000 255 255 255
138.437 127.357 429.041 255 255 255
236.244 135.989 408.258 255 255 255
491.841 -135.109 410.576 255 255 255
193.731 -24.9746 488.307 255 255 0
49.3077 20.4099 481.888 255 255 0
238.777 -8.27634 454.592 255 255 0
-127.247 -36.0758 552.242 255 255 255
-25.0788 152.28 416.522 255 255 255
-65.5703 -158.081 622.596 255 255 0
279.441 104.452 454.756 255 255 255
269.879 4.70144 428.302 255 255 255
262.352 125.788 421.011 255 255 0
195.169 65.9907 480.565 255 255 255
174.113 -39.5548 522.555 255 255 255
229.236 -15.0808 473.172 255 255 0
637.046 -131.395 781.263 255 255 255
-65.7719 104.926 448.691 255 255 255
2.34628 118.321 428.15 255 255 0
205.777 108.368 460.047 255 255 0
271.53 45.9209 443.742 255 255 255
-77.6916 -97.3014 505.643 255 255 255
228.002 -0.452044 468.549 255 255 0
-80.9239 -22.6086 520.529 255 255 0
466.081 -75.8469 427.152 255 255 255
129.972 95.1211 454.219 255 255 255
247.536 35.2579 470.28 255 255 255
741.231 -207.03 806.311 255 255 255
281.599 35.3706 434.142 255 255 0
-0.551931 152.169 424.397 255 255 255
298.918 39.9335 425.128 255 255 255
-277.833 -16.4055 739.724 255 255 255
302.188 72.6005 443.433 255 255 255
-137.216 138.615 451.29 255 255 255
-159.249 139.565 455.184 255 255 0
197.594 204.887 755.459 255 255 255
116.478 139.208 420.251 255 255 255
25.5402 153.23 406.527 255 255 255
156.209 137.378 415.451 255 255 255
237.872 188.554 783.037 255 255 255
235.742 135.968 407.693 255 255 255
217.277 125.352 420.367 255 255 255
-173.657 -125.331 570.383 255 255 255
107.606 65.8167 470.604 255 255 255
614.857 -101.09 689.953 255 255 255
-14.8574 -93.8074 514.686 255 255 255
283.73 93.5612 473.45 255 255 0
265.692 -38.2607 494.909 255 255 255
-60.8695 123.472 408.452 255 255 255
-8.86087 -36.2915 481.483 255 255 0
639.104 -78.8147 686.856 255 255 0
-21.2493 123.67 413.465 255 255 0
-152.014 -235.191 1000 255 255 255
58.2318 65.3841 464.45 255 255 255
-54.5413 -119.51 588.971 255 255 255
250.147 57.663 475.608 255 255 255
93.7941 93.9191 457.543 255 255 255
-71.0111 118.193 437.828 255 255 255
35.9381 33.1018 500.198 255 255 255
624.931 -208.18 870.107 255 255 255
136.888 54.2576 471.853 255 255 255
173.005 -7.92604 516.549 255 255 255
740.093 -207.569 806.561 255 255 255
-74.8717 -115.734 560.623 255 255 255
-127.056 141.273 481.434 255 255 255
164.648 175.947 775.049 255 255 255
-188.968 154.998 431.611 255 255 0
202.152 161.958 801.044 255 255 255
137.255 128.26 428.328 255 255 255
263.516 115.62 436.081 255 255 0
-107.786 -28.5398 537.19 255 255 0
149.846 71.7062 470.257 255 255 0
-11.3931 98.6438 443.716 255 255 255
633.223 -169.06 871.635 255 255 255
66.2516 87.9443 468.615 255 255 0
-25.3293 152.63 417.173 255 255 255
-23.076 56.9214 463.378 255 255 0
2.75177 102.12 449.056 255 255 0
-97.3407 -151.326 610.777 255 255 255
-80.8127 40.1843 460.938 255 255 255
269.933 5.21163 427.861 255 255 0
-33.9611 115.99 461.664 255 255 255
173.42 -40.7428 521.703 255 255 255
-31.7368 -116.694 545.726 255 255 255
226.831 -23.8114 504.902 255 255 255
291.69 75.7924 451.78 255 255 0
197.759 5.8446 499.561 255 255 0
-136.894 -39.3114 561.264 255 255 255
274.362 73.3028 477.156 255 255 255
-13.4907 -83.7532 474.328 255 255 255
259.446 77.5347 489.35 255 255 255
274.593 47.6315 447.853 255 255 255
78.324 84.9858 464.723 255 255 255
95.6165 94.4451 462.59 255 255 255
-26.1865 104.324 466.852 255 255 255
197.65 -110.261 596.245 255 255 255
-65.0348 -159.002 631.612 255 255 255
9.07935 43.6539 440.962 255 255 255
297.38 39.8301 423.566 255 255 0
-41.8498 23.082 502.374 255 255 255
733.284 -205.056 800.511 255 255 255
334.507 -100.51 649.535 255 255 0
57.2381 132.62 437.646 255 255 255
156.453 137.045 416.609 255 255 255
-130.276 141.178 487.069 255 255 255
-139.091 140.992 456.09 255 255 255
490.266 -134.818 406.222 255 255 0
218.037 126.589 423.739 255 255 0
-12.537 99.0076 453.378 255 255 0
251.005 -1.05696 444.236 255 255 255
231.108 92.717 482.642 255 255 0
243.858 -60.4959 538.366 255 255 0
586.26 -88.377 722.384 255 255 255
490.356 4.6573 428.406 255 255 255
-49.0023 127.813 433.033 255 255 255
99.6417 72.298 459.522 255 255 0
611.943 -101.813 684.013 255 255 255
612.201 -128.563 742.631 255 255 255
615.907 -69.3189 695.909 255 255 255
-133.514 -39.0681 564.805 255 255 255
625.535 -211.401 866.845 255 255 255
0.766927 36.6488 454.251 255 255 255
205.848 108.402 459.935 255 255 0
253.272 -31.7588 469.59 255 255 255
27.4728 141.176 430.042 255 255 0
99.578 -81.9195 631.963 255 255 0
238.839 11.6895 466.376 255 255 255
491.624 -73.7175 415.687 255 255 0
359.964 -103.369 654.746 255 255 255
475.32 -153.221 405.872 255 255 0
59.054 138.193 426.57 255 255 255
25.0656 153.418 406.01 255 255 255
-117.97 137.651 455.096 255 255 255
-159.123 139.695 455.487 255 255 255
74.3191 8.17567 458.716 255 255 0
237.562 -7.36258 451.514 255 255 0
262.636 125.946 422.296 255 255 0
47.6012 17.6651 487.634 255 255 0
-62.6373 104.193 446.204 255 255 0
109.505 64.825 471.454 255 255 255
614.577 -152.687 847.554 255 255 0
511.914 -142.581 402.382 255 255 255
195.601 -44.0363 501.684 255 255 255
-18.5792 116.113 436.382 255 255 255
74.055 64.6261 461.543 255 255 255
-13.8594 -56.0517 474.421 255 255 0
216.298 -18.6009 477.83 255 255 0
-186.939 85.8207 562.975 255 255 255
-120.658 -118.835 560.353 255 255 255
286.691 -21.1511 463.667 255 255 255
93.0211 94.0801 452.089 255 255 255
246.924 27.3625 461.227 255 255 255
227.227 -0.335003 465.967 255 255 0
171.884 79.5748 449.445 255 255 0
-195.256 -219.758 815.59 255 255 255
-142.555 -118.313 552.659 255 255 255
324.392 -149.323 636.661 255 255 255
128.589 95.3584 448.759 255 255 0
364.213 28.88 421.774 255 255 0
170.807 -9.17523 504.614 255 255 255
515.538 23.1478 431.19 255 255 0
490.915 -28.2854 421.201 255 255 255
-144.749 76.0662 467.39 255 255 255
-243.428 -10.5479 700.185 255 255 255
-145.468 144.724 495.29 255 255 255
274.459 116.123 437.296 255 255 255
-121.433 131.583 475.678 255 255 255
-155.833 109.317 513.826 255 255 255
297.816 149.794 374.944 255 255 255
190.207 -23.48 486.44 255 255 255
-31.5753 91.3517 478.604 255 255 255
470.666 22.9107 431.877 255 255 255
497.9 -129.962 390.15 255 255 255
-109.725 -28.1614 540.927 255 255 255
-15.7508 100.122 456.727 255 255 255
153.321 76.0233 457.187 255 255 255
81.5861 70.667 454.238 255 255 255
0.545767 103.361 443.05 255 255 255
214.826 -77.7015 569.422 255 255 255
232.722 -16.9093 479.444 255 255 255
-93.099 -154.719 615.675 255 255 255
280.319 -33.4063 495.749 255 255 255
-24.8559 53.079 475.039 255 255 255
-180.405 -97.3106 576.459 255 255 255
634.836 -215.53 870.201 255 255 255
-41.3738 102.813 464.317 255 255 255
-37.5321 118.048 458.505 255 255 255
-152.95 -126.722 595.676 255 255 255
-10.5078 29.1085 494.464 255 255 255
-118.676 -110.089 545.219 255 255 255
245.991 36.0964 474.745 255 255 255
10.8521 48.8722 443.471 255 255 255
180.864 -6.55274 508.517 255 255 255
-84.7023 -23.1307 531.239 255 255 255
271.286 32.8376 429.985 255 255 255
133.08 55.9064 474.869 255 255 255
196.526 -110.458 599.152 255 255 255
-1.53886 117.482 419.433 255 255 255
111.764 107.677 453.379 255 255 255
235.023 15.1236 463.312 255 255 255
486.6 -71.9274 410.315 255 255 255
533.732 -140.919 389.414 255 255 255
557.534 18.4177 410.249 255 255 255
572.895 16.9024 406.45 255 255 255
489.147 -27.1105 420.22 255 255 255
